# .PCD v0.7 - Point Cloud Data file format
VERSION 0.7
FIELDS x y z
SIZE 4 4 4
TYPE F F F
COUNT 1 1 1
WIDTH 1254
HEIGHT 1
VIEWPOINT 0 0 0 1 0 0 0
POINTS 1254
DATA ascii
-0.10345009 -0.021022759 -0.017426569
-0.10396464 -0.021255353 -0.017392954
-0.10447919 -0.021487949 -0.017359339
-0.10499375 -0.021720547 -0.017325724
-0.1055083 -0.021953141 -0.017292108
-0.10591843 -0.022317996 -0.017517893
-0.1059109 -0.023210008 -0.018778628
-0.10559168 -0.024491873 -0.020806717
-0.1056884 -0.025245693 -0.021799816
-0.10619972 -0.02547683 -0.021766413
-0.10660704 -0.025838166 -0.021989221
-0.10711819 -0.026069224 -0.021955829
-0.10794263 -0.025909888 -0.021153189
-0.10876881 -0.025750216 -0.020348867
-0.10949141 -0.025720818 -0.019800553
-0.11042636 -0.025429869 -0.018735155
-0.11093965 -0.025661895 -0.018701622
-0.11092336 -0.026546195 -0.019957645
-0.11090714 -0.027427413 -0.02120929
-0.11099634 -0.028176354 -0.022200791
-0.11119066 -0.028794358 -0.022934273
-0.11148994 -0.029282475 -0.023411306
-0.11199985 -0.029512968 -0.023377996
-0.11250974 -0.029743461 -0.023344684
-0.1128079 -0.03023058 -0.023821102
-0.11310565 -0.030717021 -0.024296857
-0.11350887 -0.031075034 -0.02451786
-0.11391182 -0.031432804 -0.024738712
-0.1145269 -0.031535223 -0.024451355
-0.1149295 -0.031892829 -0.024672227
-0.11543834 -0.032122843 -0.024638984
-0.11594717 -0.032352857 -0.024605744
-0.11624233 -0.032837156 -0.025080295
-0.11664391 -0.033193935 -0.025300723
-0.11715222 -0.033423711 -0.025267513
-0.11776779 -0.033526719 -0.024980638
-0.11816884 -0.033883259 -0.025201099
-0.11867715 -0.034113038 -0.025167892
-0.11907774 -0.034469254 -0.025388211
-0.11958589 -0.034698948 -0.025355015
-0.12020208 -0.034802362 -0.02506827
-0.12081871 -0.034905843 -0.024781324
-0.12132719 -0.035135698 -0.024748106
-0.12172701 -0.035491683 -0.024968646
-0.12212655 -0.035847422 -0.025189035
-0.12252582 -0.036202919 -0.02540927
-0.12303378 -0.036432534 -0.025376085
-0.12430789 -0.035780843 -0.023565026
-0.083707891 -0.016378619 -0.023695413
-0.084122613 -0.016742747 -0.023917319
-0.084633224 -0.016973561 -0.023883961
-0.084758818 -0.017735738 -0.024870019
-0.085172459 -0.018098762 -0.02509113
-0.085682184 -0.018329175 -0.025057834
-0.086191908 -0.01855959 -0.025024531
-0.086701632 -0.018790003 -0.024991231
-0.087211356 -0.019020416 -0.024957933
-0.087623991 -0.019382868 -0.025178935
-0.088230804 -0.019481244 -0.024891332
-0.088545725 -0.019975321 -0.025366511
-0.089055091 -0.020205574 -0.025333235
-0.089466803 -0.020567361 -0.025553955
-0.089975998 -0.020797538 -0.02552069
-0.090485193 -0.02102771 -0.025487425
-0.090994388 -0.021257883 -0.025454158
-0.091601938 -0.021356842 -0.025166851
-0.092111304 -0.021587096 -0.025133576
-0.092620671 -0.021817351 -0.025100298
-0.093031153 -0.022178577 -0.0253211
-0.093540341 -0.022408752 -0.025287835
-0.093950361 -0.022769649 -0.025508493
-0.094757646 -0.022607539 -0.024712902
-0.095366925 -0.022707036 -0.024425136
-0.096477605 -0.022150995 -0.022861179
-0.097492002 -0.021724401 -0.02154731
-0.098408557 -0.021428375 -0.020486215
-0.099022515 -0.021528017 -0.020195361
-0.09943334 -0.021891618 -0.020419266
-0.10025174 -0.021727508 -0.019613048
-0.10107186 -0.021563053 -0.018805137
-0.10199665 -0.021265764 -0.017736478
-0.10292402 -0.020967642 -0.016664814
-0.1035426 -0.02106761 -0.016371191
-0.10405768 -0.021300452 -0.01633754
-0.10467687 -0.021400573 -0.016043697
-0.10487955 -0.022031132 -0.016790096
-0.10529004 -0.022396086 -0.017016139
-0.10559598 -0.022892797 -0.017501336
-0.10579725 -0.023520462 -0.018244635
-0.10578994 -0.024409125 -0.019502336
-0.10588653 -0.025164112 -0.020498645
-0.10639857 -0.02539557 -0.020465193
-0.10680638 -0.025757443 -0.020688768
-0.10731824 -0.025988821 -0.020655328
-0.10824884 -0.025698654 -0.019592615
-0.10918205 -0.025407676 -0.018526928
-0.11001214 -0.025246972 -0.017717307
-0.11052597 -0.025479242 -0.017683741
-0.11072193 -0.026103754 -0.018426329
-0.11102331 -0.026596654 -0.018909352
-0.11069017 -0.027867729 -0.020934956
-0.11077969 -0.028616058 -0.021926837
-0.11097423 -0.029233603 -0.022660606
-0.1116956 -0.029206742 -0.022116004
-0.11188912 -0.029823454 -0.022849318
-0.11239919 -0.030054027 -0.022815995
-0.11290927 -0.0302846 -0.02278267
-0.11299545 -0.031027494 -0.023769233
-0.11297573 -0.031895749 -0.025006892
-0.11337844 -0.032252856 -0.025227342
-0.11388675 -0.032482632 -0.025194136
-0.11439506 -0.032712407 -0.025160929
-0.11490338 -0.032942183 -0.02512772
-0.11541168 -0.033171959 -0.025094513
-0.11591999 -0.033401735 -0.025061306
-0.1164283 -0.033631507 -0.025028098
-0.11693662 -0.033861283 -0.024994891
-0.11755211 -0.03396444 -0.024707923
-0.11795323 -0.034320831 -0.024928477
-0.11835408 -0.03467698 -0.025148878
-0.11875465 -0.035032876 -0.025369126
-0.11926261 -0.035262492 -0.025335943
-0.11987848 -0.035366062 -0.02504929
-0.12038662 -0.035595756 -0.025016094
-0.12100309 -0.035699483 -0.024729231
-0.12140288 -0.036055148 -0.024949703
-0.12191102 -0.036284842 -0.024916505
-0.12231036 -0.036640186 -0.025136838
-0.12238318 -0.037371203 -0.026116047
-0.12289044 -0.037600502 -0.026082909
-0.12482089 -0.036197219 -0.022748899
-0.083906032 -0.017182296 -0.023643464
-0.08403264 -0.017944185 -0.024629856
-0.084350586 -0.018439502 -0.025105381
-0.084860131 -0.018669834 -0.025072092
-0.085369676 -0.018900169 -0.025038803
-0.085879229 -0.019130502 -0.025005516
-0.086388774 -0.019360837 -0.024972226
-0.086898312 -0.019591169 -0.024938939
-0.087407857 -0.019821502 -0.024905652
-0.087820292 -0.02018355 -0.025126597
-0.088232435 -0.020545345 -0.025347389
-0.088644296 -0.020906892 -0.025568027
-0.089153312 -0.021136984 -0.025534775
-0.089662321 -0.021367079 -0.025501519
-0.090171345 -0.021597171 -0.025468268
-0.090778396 -0.021696215 -0.025181063
-0.091287591 -0.021926388 -0.025147799
-0.091895245 -0.02202558 -0.024860384
-0.092404619 -0.022255832 -0.024827106
-0.092815168 -0.02261691 -0.025048004
-0.09312658 -0.023108296 -0.025522577
-0.093239978 -0.023859331 -0.02650295
-0.093649238 -0.024218976 -0.026722731
-0.094454527 -0.024058711 -0.025930056
-0.09546084 -0.023637354 -0.024627447
-0.096972816 -0.022559181 -0.022042004
-0.098191209 -0.021869464 -0.0202114
-0.0988051 -0.021969257 -0.019920453
-0.099521242 -0.021937195 -0.019371456
-0.10044288 -0.021640742 -0.018304713
-0.10126435 -0.021475965 -0.017494291
-0.1021907 -0.021178138 -0.016422288
-0.10291249 -0.02114537 -0.015868327
-0.10353149 -0.021245472 -0.015574216
-0.10415094 -0.021345643 -0.015279898
-0.10466657 -0.021578731 -0.015246213
-0.10497358 -0.022077063 -0.015733676
-0.10507178 -0.022839032 -0.016740168
-0.10537788 -0.023335431 -0.01722556
-0.10557938 -0.023962632 -0.017969148
-0.10588458 -0.024457375 -0.018452829
-0.10598113 -0.025213087 -0.01945165
-0.1064937 -0.025444791 -0.019418163
-0.10742446 -0.025153454 -0.018352233
-0.1085683 -0.024598664 -0.016764527
-0.10887183 -0.025093654 -0.017249729
-0.10938584 -0.025326006 -0.01721615
-0.10989986 -0.025558358 -0.01718257
-0.11030801 -0.025921566 -0.017408157
-0.1105042 -0.026545612 -0.018151034
-0.11080575 -0.027038204 -0.01863425
-0.11036786 -0.028437387 -0.020917298
-0.11045779 -0.029184664 -0.021908861
-0.1106526 -0.029801399 -0.022642393
-0.11147901 -0.029646294 -0.021842146
-0.11198962 -0.029877108 -0.021808788
-0.11250024 -0.030107921 -0.02177543
-0.11269291 -0.030723695 -0.0225091
-0.11277939 -0.031465977 -0.023496043
-0.11265451 -0.032460656 -0.024987929
-0.11316283 -0.032690428 -0.024954719
-0.11345961 -0.03317399 -0.025428537
-0.11407347 -0.033276837 -0.025141917
-0.11458161 -0.033506531 -0.025108721
-0.11519608 -0.033609528 -0.024821891
-0.11570439 -0.0338393 -0.024788683
-0.1162127 -0.034069076 -0.024755476
-0.116721 -0.034298856 -0.024722269
-0.11722932 -0.034528628 -0.02468906
-0.11763041 -0.034884702 -0.024909547
-0.11803123 -0.035240527 -0.025129877
-0.11832443 -0.035721987 -0.025603246
-0.11872459 -0.036077157 -0.025823109
-0.11923203 -0.036306534 -0.025789959
-0.11963174 -0.036661375 -0.026009683
-0.12067921 -0.036262874 -0.02471037
-0.12118734 -0.036492568 -0.024677174
-0.12158693 -0.036847841 -0.024897587
-0.12176918 -0.03745342 -0.02562421
-0.12216801 -0.037807867 -0.025843991
-0.12267527 -0.038037162 -0.025810851
-0.12471468 -0.036509816 -0.022220371
-0.083689444 -0.017621849 -0.023369607
-0.083720595 -0.01851551 -0.02461097
-0.084134452 -0.018878136 -0.024832094
-0.084548019 -0.019240512 -0.025053067
-0.084961295 -0.019602634 -0.025273884
-0.08547049 -0.019832807 -0.025240617
-0.086076126 -0.019931272 -0.024953235
-0.086585492 -0.020161526 -0.024919961
-0.086998068 -0.020523328 -0.025140824
-0.087507263 -0.020753501 -0.025107557
-0.087919369 -0.021114975 -0.02532828
-0.088331193 -0.021476196 -0.025548849
-0.088840038 -0.02170621 -0.025515608
-0.089348868 -0.021936225 -0.025482364
-0.089955434 -0.022035351 -0.025195267
-0.09046445 -0.022265444 -0.025162011
-0.090973467 -0.022495538 -0.025128759
-0.091679193 -0.022464061 -0.024587192
-0.092188559 -0.022694316 -0.024553917
-0.092599191 -0.023055239 -0.024774907
-0.092910752 -0.023546321 -0.025249671
-0.092925817 -0.02442663 -0.02648348
-0.093335062 -0.024785953 -0.026703192
-0.093941741 -0.024885861 -0.026417112
-0.094946109 -0.024466377 -0.025116703
-0.097360484 -0.022210671 -0.020227429
-0.097973868 -0.022310551 -0.019936588
-0.098587684 -0.022410499 -0.019645544
-0.099813454 -0.021718485 -0.017803933
-0.10083975 -0.021288585 -0.016473353
-0.10145737 -0.021388631 -0.016179765
-0.10217865 -0.021356013 -0.01562563
-0.10290094 -0.021323349 -0.015070719
-0.10362425 -0.021290638 -0.014515026
-0.10424437 -0.021390932 -0.014220025
-0.10476055 -0.021624265 -0.014186303
-0.10506783 -0.022123091 -0.014675027
-0.10537467 -0.022621214 -0.015163064
-0.10536808 -0.023514571 -0.016430583
-0.10567397 -0.024010496 -0.016916191
-0.10597942 -0.024505727 -0.017401118
-0.10618015 -0.025131259 -0.018144002
-0.10679792 -0.025232373 -0.017851822
-0.10825656 -0.024282845 -0.015482162
-0.10877165 -0.024515687 -0.015448512
-0.10918108 -0.024880026 -0.015675182
-0.10937886 -0.025506482 -0.016421447
-0.10968183 -0.026000835 -0.016906891
-0.11019584 -0.026233189 -0.016873309
-0.11028648 -0.026987473 -0.01787574
-0.11027134 -0.027869457 -0.019133205
-0.11004577 -0.029006649 -0.020899652
-0.11003111 -0.02988144 -0.022146609
-0.11012132 -0.030625151 -0.023134397
-0.11094632 -0.030471066 -0.0223355
-0.11177304 -0.030316658 -0.021534931
-0.11228365 -0.030547474 -0.021501573
-0.11247656 -0.031162787 -0.022235531
-0.11256334 -0.031904459 -0.023222851
-0.11243891 -0.032898225 -0.024715306
-0.11284167 -0.033254866 -0.024935782
-0.11324415 -0.033611257 -0.025156103
-0.1137521 -0.033840869 -0.025122918
-0.11426006 -0.034070488 -0.025089735
-0.11498046 -0.034047101 -0.024549268
-0.11548878 -0.034276873 -0.024516059
-0.11610377 -0.034380175 -0.024228925
-0.11650539 -0.034736425 -0.024449646
-0.1170137 -0.034966197 -0.024416439
-0.11730781 -0.035448182 -0.02489063
-0.11760151 -0.035929497 -0.025364162
-0.11810912 -0.036158953 -0.025331002
-0.11840207 -0.036639441 -0.025803901
-0.11901679 -0.036743347 -0.025517808
-0.11941658 -0.037098039 -0.025737625
-0.12024752 -0.036951371 -0.024945026
-0.1207553 -0.037180908 -0.024911854
-0.12126309 -0.037410442 -0.024878679
-0.1214456 -0.038015231 -0.025605069
-0.12195286 -0.038244531 -0.025571931
-0.12256881 -0.038348988 -0.025285758
-0.12449848 -0.036948599 -0.021946989
-0.083472863 -0.018061399 -0.023095749
-0.083408773 -0.019086437 -0.024592096
-0.083726928 -0.019580618 -0.025067318
-0.084140353 -0.019942498 -0.025288053
-0.084457673 -0.020435568 -0.025762297
-0.084966332 -0.020665502 -0.025729068
-0.085474998 -0.020895436 -0.025695836
-0.08608 -0.020994168 -0.025408911
-0.086588845 -0.021224182 -0.02537567
-0.087097682 -0.021454195 -0.025342427
-0.087509654 -0.021815173 -0.025562914
-0.088018313 -0.022045109 -0.025529684
-0.088526972 -0.022275042 -0.025496455
-0.089035638 -0.022504976 -0.025463222
-0.089446783 -0.022865465 -0.025683591
-0.089955278 -0.023095319 -0.025650373
-0.090757564 -0.022933716 -0.024855759
-0.091266572 -0.02316381 -0.024822503
-0.0919725 -0.023132799 -0.024280725
-0.092679411 -0.023101743 -0.023738194
-0.093189135 -0.023332156 -0.023704894
-0.092907518 -0.024604352 -0.025704565
-0.093218319 -0.025093513 -0.026177863
-0.093924135 -0.025063904 -0.02563815
-0.096631005 -0.022420064 -0.019986173
-0.097244136 -0.022520015 -0.01969525
-0.098669574 -0.021563929 -0.017336385
-0.099183589 -0.021796282 -0.017302807
-0.10010669 -0.021499006 -0.016230911
-0.10092954 -0.021333732 -0.015416597
-0.10154784 -0.021433901 -0.015122329
-0.10237338 -0.021268327 -0.014305699
-0.10309682 -0.021235554 -0.013749076
-0.10371719 -0.0213359 -0.013453597
-0.10433801 -0.021436315 -0.013157912
-0.10485473 -0.021669894 -0.013124154
-0.10537146 -0.021903474 -0.013090396
-0.10588818 -0.022137055 -0.013056639
-0.10629992 -0.022503385 -0.01328487
-0.10629168 -0.023398833 -0.014558364
-0.10617893 -0.024422707 -0.016087381
-0.10669348 -0.024655305 -0.016053766
-0.10752298 -0.024493413 -0.015239552
-0.10824877 -0.024462964 -0.014684564
-0.10876423 -0.02469597 -0.01465089
-0.10917394 -0.025060503 -0.014877999
-0.10947758 -0.025556039 -0.015365379
-0.1098866 -0.025919886 -0.015592
-0.10997781 -0.026675668 -0.01659763
-0.11017442 -0.02729914 -0.017341619
-0.10963288 -0.028828261 -0.019888332
-0.10982896 -0.029446661 -0.020625509
-0.1097098 -0.03044901 -0.022128575
-0.10969575 -0.031319477 -0.023370801
-0.11020495 -0.031549647 -0.023337534
-0.11176777 -0.030499415 -0.020748498
-0.11227873 -0.030730391 -0.020715116
-0.11247178 -0.031345941 -0.021450404
-0.11224172 -0.032470345 -0.023204474
-0.11243413 -0.033081952 -0.023934621
-0.11273161 -0.03356557 -0.024409475
-0.11313427 -0.033921979 -0.024630057
-0.1136424 -0.034151673 -0.024596861
-0.11425655 -0.034254894 -0.024309853
-0.11487111 -0.034358189 -0.024022646
-0.11527316 -0.034714445 -0.024243437
-0.11578148 -0.034944221 -0.02421023
-0.11628979 -0.035173997 -0.024177022
-0.1165844 -0.035655834 -0.024651378
-0.11698544 -0.036011267 -0.024871724
-0.11738621 -0.036366463 -0.025091916
-0.1177867 -0.036721405 -0.025311956
-0.11818691 -0.037076108 -0.025531845
-0.11890902 -0.037054833 -0.024992432
-0.11952435 -0.037158951 -0.024705861
-0.12003213 -0.037388489 -0.024672685
-0.12053992 -0.037618022 -0.024639513
-0.12072318 -0.038222596 -0.025366152
-0.12123044 -0.038451891 -0.025333013
-0.12184615 -0.038556427 -0.025046756
-0.12289782 -0.038161069 -0.023745326
-0.12428227 -0.03738739 -0.021673609
-0.084222175 -0.014323761 -0.016217439
-0.084349498 -0.01509661 -0.01722325
-0.083800785 -0.016805325 -0.020033333
-0.082683094 -0.019294739 -0.024352098
-0.082811132 -0.020052111 -0.025335457
-0.083224587 -0.020413574 -0.025555946
-0.083733253 -0.020643508 -0.025522716
-0.084241912 -0.020873444 -0.025489485
-0.084654726 -0.021234499 -0.025709845
-0.085163213 -0.021464352 -0.025676627
-0.085767895 -0.021563245 -0.025389794
-0.086276568 -0.021793181 -0.025356563
-0.086785227 -0.022023115 -0.025323333
-0.087100491 -0.022514403 -0.025797224
-0.087705642 -0.022613624 -0.025510533
-0.088214137 -0.022843478 -0.025477313
-0.088722616 -0.023073334 -0.025444094
-0.089133732 -0.023433501 -0.025664395
-0.08964204 -0.023663277 -0.025631186
-0.090248078 -0.023762897 -0.025344437
-0.09105067 -0.023601988 -0.024549503
-0.091559686 -0.023832083 -0.024516249
-0.092562005 -0.023409894 -0.023209823
-0.093766659 -0.022723934 -0.021386538
-0.094677046 -0.022429613 -0.020326328
-0.094788954 -0.023186045 -0.021319753
-0.096303873 -0.022102522 -0.018713698
-0.097221002 -0.021806302 -0.017646031
-0.098344162 -0.021244071 -0.016055726
-0.098858893 -0.021476751 -0.016022099
-0.099373624 -0.021709429 -0.015988471
-0.10029829 -0.021411613 -0.014913222
-0.10112251 -0.021246016 -0.014096371
-0.1016385 -0.021479268 -0.014062661
-0.102465 -0.021313565 -0.013244049
-0.10318927 -0.02128079 -0.01268609
-0.10370617 -0.021514451 -0.01265232
-0.10422309 -0.021748114 -0.01261855
-0.10494911 -0.021715622 -0.012059757
-0.10546639 -0.02194945 -0.012025963
-0.1058787 -0.022316234 -0.012254799
-0.10639579 -0.022549978 -0.012221018
-0.10691288 -0.022783725 -0.012187237
-0.10721918 -0.02328261 -0.01267823
-0.10752507 -0.023780795 -0.013168532
-0.10804142 -0.02401421 -0.013134798
-0.10855778 -0.024247624 -0.013101065
-0.10907415 -0.024481039 -0.013067331
-0.10959052 -0.024714455 -0.013033598
-0.10947065 -0.025736991 -0.014567979
-0.10998593 -0.025969915 -0.014534316
-0.11018301 -0.026595663 -0.015282305
-0.11069774 -0.026828341 -0.015248679
-0.11047009 -0.027973261 -0.017032685
-0.10992752 -0.029500032 -0.019580474
-0.10980804 -0.030503318 -0.021087293
-0.10968906 -0.031502422 -0.022587826
-0.11125117 -0.03045129 -0.019994369
-0.11208023 -0.030296486 -0.019189395
-0.11248592 -0.03065652 -0.019413337
-0.112467 -0.031529352 -0.020664185
-0.11192032 -0.033035837 -0.02318611
-0.11232381 -0.033392921 -0.023407422
-0.11272704 -0.033749759 -0.023628579
-0.11302432 -0.034232918 -0.024103645
-0.11353263 -0.034462694 -0.024070436
-0.11404094 -0.034692466 -0.024037229
-0.11465543 -0.034795914 -0.023749927
-0.11505756 -0.035152014 -0.023970816
-0.11545941 -0.035507873 -0.024191549
-0.11586098 -0.035863489 -0.024412129
-0.11626227 -0.036218848 -0.024632556
-0.11666329 -0.036573973 -0.024852833
-0.11706403 -0.036928844 -0.025072956
-0.11757146 -0.037158221 -0.025039807
-0.1182934 -0.037136998 -0.024499867
-0.11901635 -0.037115742 -0.023959177
-0.11952449 -0.037345435 -0.023925982
-0.11981675 -0.037825603 -0.024400346
-0.12032453 -0.038055141 -0.024367174
-0.12040008 -0.038783945 -0.02534711
-0.12090716 -0.039013166 -0.025313983
-0.12152254 -0.039117854 -0.025027819
-0.12268221 -0.038598642 -0.023472704
-0.12373716 -0.038202666 -0.02216628
-0.083134562 -0.015979368 -0.018276565
-0.083070792 -0.017014865 -0.019791909
-0.082624599 -0.018577142 -0.022325654
-0.082086466 -0.020260122 -0.025095791
-0.082405098 -0.020752804 -0.025570003
-0.082913585 -0.020982657 -0.025536785
-0.083422072 -0.021212511 -0.025503566
-0.083930559 -0.021442365 -0.025470346
-0.084439039 -0.021672221 -0.025437128
-0.084947534 -0.021902075 -0.025403909
-0.085359953 -0.022262648 -0.025624223
-0.085868262 -0.022492424 -0.025591014
-0.08637657 -0.022722198 -0.025557809
-0.086788364 -0.023082362 -0.025777992
-0.087393194 -0.023181748 -0.025491392
-0.087901503 -0.023411522 -0.025458185
-0.088409811 -0.023641298 -0.025424978
-0.088820897 -0.024001142 -0.025645208
-0.089134432 -0.02449055 -0.026118383
-0.089642212 -0.024720088 -0.026085211
-0.090540878 -0.024430476 -0.025038501
-0.091343775 -0.024270263 -0.024243249
-0.092543371 -0.02358759 -0.02242565
-0.094347417 -0.022112308 -0.019055218
-0.096066892 -0.020756461 -0.015914166
-0.096379407 -0.021254495 -0.016400307
-0.097197764 -0.021089081 -0.015586743
-0.097712666 -0.021321841 -0.015553105
-0.098227583 -0.0215546 -0.015519465
-0.098946586 -0.021522097 -0.014964868
-0.099564195 -0.021622332 -0.014670441
-0.10038763 -0.021456955 -0.013853334
-0.10121281 -0.021291232 -0.0130345
-0.1019362 -0.02125844 -0.012476393
-0.1026606 -0.021225603 -0.011917498
-0.10338604 -0.021192718 -0.011357814
-0.10390368 -0.021426709 -0.011323998
-0.10442132 -0.021660702 -0.01129018
-0.10493895 -0.021894695 -0.011256364
-0.10535175 -0.022261759 -0.011485633
-0.10576425 -0.022628563 -0.01171474
-0.10638665 -0.022729576 -0.011418023
-0.10690411 -0.022963487 -0.011384218
-0.10752714 -0.023064654 -0.01108728
-0.10772773 -0.023696342 -0.011842342
-0.10813911 -0.024062382 -0.012071162
-0.10865601 -0.024296043 -0.012037394
-0.10917293 -0.024529707 -0.012003624
-0.10968983 -0.024763368 -0.011969855
-0.1097817 -0.025523968 -0.012984832
-0.11008545 -0.02602005 -0.013474401
-0.11028264 -0.026646404 -0.014224296
-0.11079791 -0.026879327 -0.014190633
-0.11099413 -0.027504118 -0.014938984
-0.11129618 -0.027997419 -0.015425809
-0.11181056 -0.028229935 -0.015392206
-0.11232492 -0.028462447 -0.015358602
-0.11273252 -0.028824894 -0.015584986
-0.11207516 -0.030479675 -0.018399401
-0.11248114 -0.0308399 -0.018623773
-0.11225034 -0.031969056 -0.020390231
-0.11159915 -0.033600934 -0.023167757
-0.11210798 -0.033830948 -0.023134515
-0.11272244 -0.033934202 -0.0228466
-0.11291429 -0.034544073 -0.023576869
-0.11331702 -0.034900263 -0.023797816
-0.11371948 -0.035256207 -0.024018608
-0.11390995 -0.035863653 -0.024746396
-0.11441756 -0.036093108 -0.024713233
-0.11492516 -0.036322568 -0.024680072
-0.1153265 -0.036677524 -0.024900256
-0.11562127 -0.037157491 -0.025373291
-0.11623482 -0.037261538 -0.025087146
-0.1168488 -0.037365656 -0.024800804
-0.11757024 -0.037344579 -0.024260698
-0.11818531 -0.037448835 -0.023973774
-0.11880081 -0.037553161 -0.023686649
-0.11930894 -0.037782855 -0.023653453
-0.11960136 -0.038262721 -0.024128009
-0.12010915 -0.038492255 -0.024094833
-0.12018499 -0.03922046 -0.025075147
-0.12069207 -0.039449677 -0.025042022
-0.12119915 -0.039678898 -0.025008893
-0.12181463 -0.039783817 -0.024722625
-0.12330244 -0.038891256 -0.02240319
-0.082403034 -0.016189348 -0.018034635
-0.082245067 -0.017357886 -0.019808087
-0.08208786 -0.018520722 -0.02157289
-0.082026593 -0.019545872 -0.023073975
-0.081680924 -0.02096067 -0.025330506
-0.082189418 -0.021190526 -0.025297288
-0.082697898 -0.02142038 -0.025264069
-0.083206385 -0.021650234 -0.025230849
-0.083714873 -0.021880088 -0.025197631
-0.084127724 -0.022240669 -0.025418015
-0.084636033 -0.022470446 -0.025384808
-0.085144348 -0.02270022 -0.025351601
-0.085364573 -0.023320915 -0.026078254
-0.085872352 -0.023550451 -0.026045082
-0.086572833 -0.02351978 -0.025505463
-0.087080963 -0.023749478 -0.025472267
-0.087589093 -0.023979172 -0.025439072
-0.08809723 -0.024208868 -0.025405876
-0.088508278 -0.024568392 -0.025626035
-0.088919044 -0.024927668 -0.025846045
-0.089426823 -0.025157204 -0.02581287
-0.09012977 -0.025127647 -0.025273092
-0.0906379 -0.025357343 -0.025239896
-0.092129439 -0.024287773 -0.022662872
-0.09533383 -0.020966882 -0.015671726
-0.095949523 -0.021066817 -0.015377856
-0.09646444 -0.021299576 -0.015344217
-0.097080745 -0.021399662 -0.01505013
-0.097595833 -0.021632504 -0.015016479
-0.098212756 -0.02173274 -0.014722173
-0.098830104 -0.021833047 -0.01442766
-0.099960618 -0.021268897 -0.012824951
-0.1005801 -0.021369288 -0.012529044
-0.10120003 -0.021469751 -0.012232928
-0.1021312 -0.021170337 -0.011147821
-0.10285676 -0.021137392 -0.0105872
-0.10337477 -0.021371547 -0.010553358
-0.10378841 -0.021739056 -0.010783037
-0.10441078 -0.021839863 -0.010485677
-0.10503359 -0.02194074 -0.010188106
-0.10555178 -0.02217498 -0.010154253
-0.10575467 -0.02280828 -0.010911104
-0.10627231 -0.023042271 -0.010877287
-0.10678995 -0.023276262 -0.01084347
-0.10730758 -0.023510253 -0.010809653
-0.10782523 -0.023744248 -0.010775836
-0.10813121 -0.024242982 -0.011268345
-0.10864849 -0.024476811 -0.011234552
-0.10916576 -0.024710638 -0.011200759
-0.10957677 -0.025076449 -0.011429885
-0.10988119 -0.025573721 -0.011921412
-0.11039792 -0.025807301 -0.011887656
-0.11038247 -0.026697254 -0.013164053
-0.11068559 -0.027192162 -0.013653153
-0.11098827 -0.027686376 -0.014141563
-0.11129054 -0.028179895 -0.01462929
-0.11159237 -0.028672723 -0.015116332
-0.11210674 -0.028905237 -0.015082728
-0.11251442 -0.029267527 -0.015309209
-0.1129218 -0.029629562 -0.015535531
-0.11226395 -0.031280678 -0.018349152
-0.11182225 -0.032664139 -0.020629119
-0.11180452 -0.03353136 -0.021874813
-0.11210296 -0.03401551 -0.022351921
-0.11261215 -0.034245681 -0.022318656
-0.11301555 -0.034602474 -0.022540346
-0.1129958 -0.035463933 -0.023779277
-0.11318704 -0.036071159 -0.02450731
-0.11369464 -0.036300618 -0.02447415
-0.11420225 -0.036530074 -0.024440989
-0.11449789 -0.037010308 -0.024914505
-0.11500515 -0.037239604 -0.024881367
-0.11540618 -0.037594002 -0.025101328
-0.11591326 -0.037823223 -0.025068201
-0.11642034 -0.03805244 -0.025035074
-0.11735485 -0.037781693 -0.023988359
-0.11796986 -0.037886102 -0.02370134
-0.11858528 -0.037990581 -0.02341412
-0.11887819 -0.038470302 -0.023888839
-0.11938598 -0.038699836 -0.023855668
-0.11946283 -0.039427754 -0.024836311
-0.1199699 -0.039656971 -0.024803184
-0.12047698 -0.039886191 -0.024770057
-0.12098406 -0.040115409 -0.024736932
-0.12159947 -0.040220477 -0.024450565
-0.12210673 -0.040449776 -0.024417426
-0.12359545 -0.039559297 -0.022097042
-0.080812506 -0.017602434 -0.020115035
-0.080943786 -0.01836586 -0.0211091
-0.081264772 -0.018862264 -0.021588402
-0.081680492 -0.019225655 -0.021811118
-0.081335418 -0.020643419 -0.024074728
-0.081275955 -0.02166025 -0.025564894
-0.081784084 -0.021889944 -0.025531698
-0.082482219 -0.021858104 -0.02499135
-0.082990699 -0.022087958 -0.024958132
-0.083499193 -0.022317812 -0.024924913
-0.083912119 -0.022678241 -0.025145391
-0.084420428 -0.022908017 -0.025112184
-0.084832892 -0.023268117 -0.025332524
-0.085149184 -0.023758031 -0.025805915
-0.085656971 -0.023987567 -0.025772741
-0.08616475 -0.024217105 -0.025739569
-0.08667253 -0.02444664 -0.025706396
-0.087276898 -0.02454643 -0.025419971
-0.087784857 -0.024776045 -0.025386786
-0.088195875 -0.025135249 -0.025606876
-0.088606603 -0.025494203 -0.025826816
-0.089114211 -0.02572366 -0.025793653
-0.089719221 -0.025823856 -0.025507359
-0.090324655 -0.025924122 -0.025220865
-0.091224581 -0.025636081 -0.024172593
-0.0952162 -0.021277312 -0.015135331
-0.095731117 -0.02151007 -0.015101693
-0.096246026 -0.02174283 -0.015068053
-0.096862249 -0.021843072 -0.014773869
-0.097377352 -0.022075912 -0.014740218
-0.097994186 -0.022176309 -0.014445815
-0.099327467 -0.021346945 -0.012319421
-0.099946953 -0.021447401 -0.012023231
-0.10066996 -0.021414697 -0.011464017
-0.10139399 -0.021381946 -0.010904012
-0.10211904 -0.021349151 -0.010343218
-0.10274104 -0.021449856 -0.010045596
-0.10336348 -0.021550631 -0.009747766
-0.10388186 -0.021784954 -0.0097139003
-0.10440022 -0.022019276 -0.0096800355
-0.10523345 -0.021853385 -0.0088530062
-0.10575237 -0.022087958 -0.008819106
-0.10585017 -0.022855293 -0.0098424805
-0.10626308 -0.023222405 -0.010072492
-0.10678108 -0.023456564 -0.010038651
-0.10751045 -0.02342521 -0.0094768479
-0.10802882 -0.023659535 -0.0094429823
-0.1083351 -0.024159035 -0.009937129
-0.10864094 -0.024657831 -0.010430576
-0.10915858 -0.024891824 -0.01039676
-0.10967622 -0.025125815 -0.010362943
-0.1099809 -0.025623577 -0.010855743
-0.11028514 -0.026120638 -0.011347847
-0.11058897 -0.026616998 -0.011839259
-0.11046695 -0.027635885 -0.013376697
-0.11087606 -0.027999384 -0.013604254
-0.11085983 -0.028882997 -0.014874062
-0.11126794 -0.029245295 -0.015100615
-0.11178213 -0.029477729 -0.015067024
-0.11229632 -0.029710161 -0.015033432
-0.11270378 -0.030072041 -0.015259851
-0.11204676 -0.031721458 -0.018074531
-0.11202858 -0.032593042 -0.019328583
-0.11211617 -0.03333427 -0.020322012
-0.11209794 -0.034200329 -0.021568239
-0.11229063 -0.034810558 -0.022300597
-0.11227214 -0.035671659 -0.023539944
-0.11246412 -0.036278669 -0.024268227
-0.11286631 -0.036633644 -0.024488552
-0.11326822 -0.036988374 -0.024708726
-0.11377548 -0.037217673 -0.024675587
-0.11428273 -0.037446972 -0.024642449
-0.11468402 -0.037801296 -0.024862492
-0.11508502 -0.038155377 -0.025082381
-0.11559193 -0.03838452 -0.025049267
-0.11609883 -0.038613655 -0.025016151
-0.11649922 -0.038967334 -0.025235914
-0.11700594 -0.039196394 -0.025202811
-0.1177265 -0.039176609 -0.02466373
-0.11823358 -0.039405826 -0.024630602
-0.11863335 -0.039759353 -0.024850575
-0.11914026 -0.039988495 -0.024817459
-0.11964716 -0.040217631 -0.024784341
-0.12015407 -0.040446773 -0.024751227
-0.12066098 -0.040675912 -0.024718111
-0.12116788 -0.040905051 -0.024684995
-0.12156651 -0.04125794 -0.024904873
-0.12218169 -0.041363332 -0.024618765
-0.080083281 -0.017811755 -0.019873863
-0.080215573 -0.018574888 -0.020868266
-0.08044225 -0.019203568 -0.021603907
-0.080953039 -0.019434463 -0.021570535
-0.080988951 -0.020325284 -0.02281546
-0.08074107 -0.021606263 -0.02481829
-0.081060417 -0.022097668 -0.025292367
-0.081568547 -0.022327363 -0.025259171
-0.082171574 -0.022426488 -0.02497239
-0.082775019 -0.022525681 -0.024685413
-0.083188199 -0.022886038 -0.024905978
-0.083696507 -0.023115812 -0.024872771
-0.084109224 -0.023475839 -0.02509319
-0.084617354 -0.023705536 -0.025059994
-0.084933802 -0.024195146 -0.025533576
-0.085345656 -0.024554428 -0.025753539
-0.085853264 -0.024783883 -0.025720377
-0.086457148 -0.024883756 -0.025434054
-0.086964928 -0.025113292 -0.025400883
-0.087472707 -0.02534283 -0.025367711
-0.087786958 -0.025830969 -0.02584075
-0.088294387 -0.026060347 -0.0258076
-0.088898905 -0.026160626 -0.025521409
-0.089601234 -0.026131775 -0.024981614
-0.090109192 -0.026361391 -0.024948431
-0.091008827 -0.026073953 -0.023899781
-0.094595715 -0.022250067 -0.01589977
-0.095512703 -0.021953326 -0.014825528
-0.095926635 -0.022318438 -0.015052337
-0.096441366 -0.022551116 -0.015018711
-0.097057439 -0.022651605 -0.014724612
-0.097775631 -0.022619873 -0.014169456
-0.099313363 -0.021525567 -0.011517061
-0.099933282 -0.021626158 -0.011220379
-0.10086332 -0.021326754 -0.010133076
-0.10148487 -0.021427451 -0.0098353811
-0.10231471 -0.02126099 -0.009008809
-0.10283345 -0.021495478 -0.008974921
-0.10366561 -0.021328913 -0.008146557
-0.10408016 -0.021697346 -0.0083776573
-0.10470418 -0.021798387 -0.0080787074
-0.10646461 -0.023136897 -0.0087377001
-0.10698335 -0.023371384 -0.008703812
-0.10750208 -0.023605874 -0.0086699231
-0.10802082 -0.02384036 -0.008636035
-0.10832731 -0.024340088 -0.0091311
-0.10863338 -0.024839109 -0.0096254656
-0.10904516 -0.025205392 -0.0098554725
-0.10956298 -0.025439467 -0.0098216441
-0.10997429 -0.025805408 -0.0100515
-0.11038531 -0.026171094 -0.010281194
-0.11047629 -0.026930513 -0.011299623
-0.11077987 -0.027426129 -0.011790897
-0.11076377 -0.028312612 -0.013066567
-0.11085387 -0.029066095 -0.014077155
-0.11104984 -0.029687928 -0.014824838
-0.11156403 -0.02992036 -0.014791247
-0.11207822 -0.030152794 -0.014757656
-0.11248576 -0.03051452 -0.014984171
-0.11289302 -0.030875992 -0.015210527
-0.11212945 -0.032649703 -0.01828219
-0.11232291 -0.033264108 -0.019021047
-0.11272795 -0.033622608 -0.019244736
-0.11218019 -0.035122346 -0.021772463
-0.11174119 -0.036486175 -0.024029143
-0.11203855 -0.036966443 -0.024502944
-0.1125458 -0.037195738 -0.024469806
-0.11305306 -0.037425037 -0.024436668
-0.11356032 -0.037654337 -0.024403529
-0.11396185 -0.038008589 -0.024623655
-0.11425736 -0.038487304 -0.025096556
-0.11476409 -0.038716365 -0.025063451
-0.11537691 -0.038820878 -0.024777399
-0.11577754 -0.039174486 -0.024997244
-0.11628428 -0.039403547 -0.024964141
-0.11679101 -0.039632607 -0.024931036
-0.11729774 -0.039861668 -0.024897929
-0.11780447 -0.040090725 -0.024864826
-0.1183112 -0.040319785 -0.024831722
-0.11881793 -0.040548846 -0.024798619
-0.11932465 -0.040777907 -0.024765514
-0.11993906 -0.040883131 -0.024479359
-0.12044596 -0.041112274 -0.024446243
-0.12084484 -0.041465089 -0.024666203
-0.12124345 -0.041817661 -0.024886008
-0.12175 -0.042046644 -0.024852917
-0.079543456 -0.017754663 -0.019117543
-0.079960942 -0.018119456 -0.019341748
-0.079998687 -0.019015053 -0.020594027
-0.080225594 -0.019643273 -0.021329954
-0.080641523 -0.020006264 -0.021552684
-0.080772676 -0.020764224 -0.022541985
-0.080525391 -0.022043986 -0.024545573
-0.080750488 -0.022665577 -0.025273316
-0.081258446 -0.022895193 -0.025240131
-0.081766404 -0.023124807 -0.025206948
-0.082369283 -0.023224175 -0.024920249
-0.082782321 -0.02358404 -0.02514058
-0.083195068 -0.023943655 -0.025360754
-0.083798237 -0.024043269 -0.02507421
-0.084306195 -0.024272887 -0.025041025
-0.084814154 -0.024502503 -0.02500784
-0.085226193 -0.024861801 -0.025228061
-0.085637957 -0.02522085 -0.025448132
-0.086145565 -0.025450306 -0.02541497
-0.086653166 -0.025679763 -0.025381809
-0.087064289 -0.026038406 -0.02560175
-0.087475128 -0.026396802 -0.025821537
-0.087982386 -0.026626099 -0.025788398
-0.08868359 -0.026597589 -0.025249163
-0.089385778 -0.026569042 -0.02470918
-0.090088934 -0.026540454 -0.024168449
-0.091087312 -0.026123554 -0.022863235
-0.094277352 -0.02282469 -0.015883785
-0.094891809 -0.022925135 -0.015590401
-0.095708296 -0.022761535 -0.014776271
-0.096223027 -0.022994215 -0.014742644
-0.096839033 -0.023094861 -0.014448448
-0.098576933 -0.021736953 -0.01127351
-0.09929923 -0.021704443 -0.01071357
-0.10012559 -0.021538513 -0.0098890951
-0.10095369 -0.021372229 -0.0090628732
-0.109357 -0.024990374 -0.0082561532
-0.10976911 -0.02535712 -0.0084869703
-0.10996767 -0.025987495 -0.0092461212
-0.11048568 -0.026221653 -0.0092122806
-0.11068327 -0.026850447 -0.0099698612
-0.11077384 -0.027608909 -0.010988729
-0.11043894 -0.028886516 -0.013051539
-0.11042346 -0.029768573 -0.014322314
-0.11083173 -0.030130561 -0.014549062
-0.11134592 -0.030362995 -0.014515471
-0.11186011 -0.030595427 -0.014481878
-0.11226773 -0.030956997 -0.01470849
-0.11267506 -0.031318314 -0.014934944
-0.11308211 -0.031679377 -0.015161239
-0.1124241 -0.033321477 -0.017974332
-0.11261725 -0.033935174 -0.018713512
-0.11196421 -0.035560671 -0.021499369
-0.11131613 -0.037173804 -0.024264026
-0.11161357 -0.037653264 -0.024737339
-0.1120155 -0.038007274 -0.024957197
-0.1127326 -0.037986662 -0.024417948
-0.11313429 -0.038340684 -0.024637993
-0.11364119 -0.038569819 -0.024604876
-0.11404242 -0.038923517 -0.024824781
-0.11454915 -0.039152578 -0.024791677
-0.11505587 -0.039381634 -0.024758574
-0.11556261 -0.039610695 -0.024725467
-0.11606934 -0.039839756 -0.024692364
-0.11657607 -0.040068816 -0.024659259
-0.1170828 -0.040297877 -0.024626156
-0.1174827 -0.040650852 -0.024845978
-0.11798925 -0.040879834 -0.024812885
-0.11849581 -0.041108813 -0.024779791
-0.11900236 -0.041337796 -0.024746699
-0.11961645 -0.04144318 -0.024460634
-0.12012318 -0.041672237 -0.024427529
-0.12062991 -0.041901298 -0.024394426
-0.1209206 -0.042376995 -0.024867158
-0.12153513 -0.0424827 -0.024581237
-0.082778439 -0.013341507 -0.0094418917
-0.081364982 -0.01628639 -0.014660276
-0.080350906 -0.018658992 -0.018775783
-0.080293126 -0.019686354 -0.020286385
-0.080709472 -0.02004971 -0.020509711
-0.080651082 -0.021071669 -0.022013016
-0.080404051 -0.022351019 -0.024018766
-0.080535024 -0.023102844 -0.025000883
-0.080948554 -0.023462627 -0.025221106
-0.081550941 -0.023562077 -0.024934513
-0.082058907 -0.023791691 -0.024901329
-0.082377009 -0.024281075 -0.025374856
-0.082789607 -0.024640201 -0.025594797
-0.083487466 -0.024610307 -0.025055243
-0.084090739 -0.024710154 -0.024768591
-0.08459869 -0.02493977 -0.024735406
-0.085010812 -0.025298918 -0.024955723
-0.085135192 -0.026045365 -0.025934845
-0.085642271 -0.026274584 -0.025901718
-0.08614935 -0.026503803 -0.025868591
-0.086656436 -0.02673302 -0.025835464
-0.087163515 -0.026962239 -0.025802338
-0.087767221 -0.027062761 -0.025516342
-0.088468283 -0.027034555 -0.024976917
-0.089365013 -0.026748253 -0.023929035
-0.090068646 -0.026719768 -0.023387387
-0.091855824 -0.0252633 -0.020031879
-0.093959205 -0.023398908 -0.015867811
-0.094573334 -0.023499519 -0.015574525
-0.095288515 -0.023468439 -0.015020939
-0.096004702 -0.023437314 -0.014466576
-0.09692464 -0.023141928 -0.013389188
-0.098664731 -0.021782786 -0.010206402
-0.099696621 -0.021349808 -0.0088525098
-0.11006771 -0.026037917 -0.0081749763
-0.11047942 -0.026404163 -0.0084057394
-0.11046378 -0.027295891 -0.0096923336
-0.11055467 -0.028053727 -0.010711593
-0.11022037 -0.029330084 -0.01277518
-0.11031121 -0.030081874 -0.013785823
-0.11071966 -0.030443879 -0.014012838
-0.11112782 -0.030805629 -0.014239694
-0.111642 -0.031038061 -0.014206101
-0.1121562 -0.031270493 -0.01417251
-0.11256371 -0.031631827 -0.014399231
-0.11297095 -0.031992909 -0.014625792
-0.11263178 -0.033251122 -0.016666904
-0.11271873 -0.033993244 -0.017666476
-0.11195908 -0.035746567 -0.020715093
-0.11110097 -0.037610471 -0.02399197
-0.11129383 -0.038214423 -0.024718527
-0.11180056 -0.038443483 -0.024685424
-0.11230729 -0.038672544 -0.024652319
-0.11281402 -0.038901605 -0.024619214
-0.11332075 -0.039130665 -0.024586109
-0.11382748 -0.039359726 -0.024553005
-0.11433421 -0.039588787 -0.024519902
-0.11484094 -0.039817844 -0.024486797
-0.11534767 -0.040046904 -0.024453694
-0.1158544 -0.040275965 -0.024420589
-0.11636113 -0.040505029 -0.024387486
-0.11676128 -0.04085793 -0.02460739
-0.11705455 -0.041334182 -0.025079811
-0.11756075 -0.041563004 -0.025046742
-0.11817391 -0.041668393 -0.024760978
-0.1186803 -0.041897297 -0.024727896
-0.11929405 -0.042002834 -0.024441926
-0.1198006 -0.042231817 -0.024408832
-0.12030716 -0.042460795 -0.02437574
-0.12059798 -0.042935945 -0.024848321
-0.1212122 -0.043041807 -0.024562491
-0.082461327 -0.013924563 -0.0094280429
-0.081530407 -0.01619157 -0.013338985
-0.081565678 -0.017097158 -0.014611041
-0.081888594 -0.017598111 -0.015098438
-0.080777563 -0.020093247 -0.019464554
-0.081098884 -0.020588791 -0.019945337
-0.080471486 -0.022396741 -0.022982346
-0.080508135 -0.023279652 -0.024220938
-0.080733173 -0.023899743 -0.024948766
-0.081240952 -0.024129281 -0.024915595
-0.081748731 -0.024358816 -0.024882421
-0.082066938 -0.024847638 -0.025355797
-0.082479507 -0.025206443 -0.025575669
-0.083081804 -0.025306392 -0.025289498
-0.083684519 -0.025406411 -0.025003126
-0.084287643 -0.025506496 -0.024716556
-0.084508531 -0.026123635 -0.025443114
-0.084920108 -0.026481878 -0.025662882
-0.085427187 -0.026711095 -0.025629755
-0.085838303 -0.02706901 -0.02584938
-0.086345211 -0.027298149 -0.025816265
-0.086948425 -0.027398752 -0.025530374
-0.087552063 -0.027499424 -0.025244284
-0.088349909 -0.027342787 -0.024451172
-0.089149408 -0.027185824 -0.023656413
-0.090048335 -0.026899332 -0.022605242
-0.091639094 -0.025703158 -0.019757831
-0.093741253 -0.023841232 -0.015592227
-0.094355308 -0.023941997 -0.015298844
-0.095170952 -0.023779528 -0.014484692
-0.096190535 -0.023352645 -0.013146406
-0.097927533 -0.021994395 -0.0099625932
-0.098855384 -0.021695299 -0.0088727437
-0.11056424 -0.027347643 -0.0086227953
-0.11044194 -0.028367857 -0.010171371
-0.11000181 -0.029773649 -0.012498822
-0.11051709 -0.030006573 -0.012465159
-0.11050148 -0.030886665 -0.013736964
-0.11090972 -0.03124826 -0.013963916
-0.11153022 -0.031351697 -0.013669758
-0.11225781 -0.031326104 -0.013114447
-0.11277254 -0.031558782 -0.01308082
-0.1128597 -0.032306656 -0.014089971
-0.11305328 -0.032924216 -0.014836594
-0.11292683 -0.033923827 -0.016358618
-0.11195395 -0.03593272 -0.019929729
-0.11120011 -0.037671912 -0.02295839
-0.11076538 -0.039024062 -0.025205156
-0.11127158 -0.039252885 -0.025172085
-0.11209235 -0.039108753 -0.024380542
-0.11259908 -0.039337814 -0.024347439
-0.11310581 -0.039566875 -0.024314335
-0.11340171 -0.040044181 -0.024787122
-0.11390809 -0.040273085 -0.024754042
-0.11441447 -0.040501986 -0.024720959
-0.11492085 -0.04073089 -0.024687877
-0.11532122 -0.04108347 -0.024907526
-0.11582743 -0.041312292 -0.024874456
-0.11622735 -0.041664556 -0.025093963
-0.11673337 -0.041893296 -0.025060905
-0.11713284 -0.042245235 -0.025280273
-0.11753204 -0.042596929 -0.025499491
-0.11835845 -0.042456411 -0.024709107
-0.11897188 -0.042562108 -0.024423227
-0.11937086 -0.042914055 -0.024642967
-0.11987706 -0.043142881 -0.024609897
-0.12027559 -0.043494508 -0.024829496
-0.12088947 -0.043600526 -0.024543758
-0.082241297 -0.014371111 -0.009149828
-0.081696309 -0.016096484 -0.012013969
-0.081539132 -0.01727223 -0.01381283
-0.081958406 -0.017639371 -0.014040234
-0.082185 -0.018273888 -0.014788744
-0.080881998 -0.021028955 -0.019671099
-0.080255508 -0.022835072 -0.022709249
-0.080292523 -0.023717223 -0.023948316
-0.080517784 -0.024336861 -0.024676427
-0.081025563 -0.024566397 -0.024643254
-0.08153335 -0.024795933 -0.02461008
-0.081757091 -0.025413809 -0.02533675
-0.082264341 -0.025643107 -0.025303612
-0.082771599 -0.025872406 -0.025270473
-0.083278857 -0.026101703 -0.025237335
-0.083690859 -0.026459951 -0.025457172
-0.084102578 -0.026817953 -0.02567686
-0.084609479 -0.027047092 -0.025643744
-0.085116386 -0.027276231 -0.025610628
-0.085623294 -0.027505372 -0.025577514
-0.086130194 -0.027734511 -0.025544398
-0.086637102 -0.027963649 -0.025511282
-0.087336898 -0.027936086 -0.024972226
-0.08813452 -0.027779903 -0.024178833
-0.088933803 -0.027623395 -0.023383789
-0.089539587 -0.027724389 -0.023096262
-0.091422357 -0.026143014 -0.019483784
-0.093523309 -0.024283554 -0.015316644
-0.094137281 -0.024384476 -0.015023164
-0.095053308 -0.024090836 -0.01394807
-0.096783042 -0.022737619 -0.010772135
-0.098117143 -0.021907207 -0.00862859
-0.11032913 -0.028682208 -0.0096307667
-0.10999525 -0.029957695 -0.011698845
-0.11029852 -0.030450139 -0.012188802
-0.1108138 -0.030683061 -0.012155139
-0.11143558 -0.030786516 -0.011859724
-0.11216463 -0.030760473 -0.011301967
-0.11246649 -0.031252526 -0.011792376
-0.1128749 -0.031614754 -0.01202049
-0.11306894 -0.032234557 -0.012771125
-0.11315569 -0.032981489 -0.013780711
-0.11270948 -0.034364916 -0.016083805
-0.11194882 -0.03611913 -0.019143272
-0.11098473 -0.038109031 -0.022686051
-0.11075945 -0.039211255 -0.024428047
-0.11126601 -0.039440237 -0.024394954
-0.11187742 -0.039544962 -0.024108769
-0.11238415 -0.039774027 -0.024075665
-0.11278567 -0.040127181 -0.024295675
-0.11318692 -0.040480092 -0.024515536
-0.11358789 -0.040832762 -0.024735242
-0.11409409 -0.041061584 -0.024702173
-0.11449461 -0.041413929 -0.024921739
-0.11478914 -0.041889306 -0.025393456
-0.11540071 -0.041994698 -0.025108108
-0.11590657 -0.04222336 -0.025075061
-0.11641242 -0.042452026 -0.025042014
-0.11681186 -0.042803649 -0.025261315
-0.11721104 -0.043155029 -0.02548046
-0.11782323 -0.043260824 -0.025195243
-0.11854286 -0.043243881 -0.024657272
-0.11904889 -0.043472625 -0.024624214
-0.11955491 -0.043701369 -0.024591155
-0.11984596 -0.04417517 -0.025063099
-0.12056698 -0.044158861 -0.024525037
-0.082021266 -0.014817658 -0.0088716121
-0.081477128 -0.0165413 -0.011736833
-0.081993856 -0.01677488 -0.011703076
-0.080475323 -0.021732386 -0.019910738
-0.080039531 -0.023273403 -0.022436153
-0.080076918 -0.024154793 -0.023675693
-0.080208249 -0.024903601 -0.024657603
-0.080715857 -0.025133057 -0.024624443
-0.081223466 -0.025362514 -0.02459128
-0.081541933 -0.025850471 -0.025064694
-0.082049184 -0.02607977 -0.025031555
-0.08246161 -0.026438026 -0.025251465
-0.08296869 -0.026667247 -0.025218338
-0.083285615 -0.027153797 -0.025690826
-0.083792344 -0.027382856 -0.025657723
-0.084299073 -0.027611917 -0.025624618
-0.084805802 -0.027840978 -0.025591515
-0.08531253 -0.028070038 -0.02555841
-0.085819259 -0.028299097 -0.025525307
-0.086422086 -0.028400011 -0.025239412
-0.086928993 -0.02862915 -0.025206298
-0.08762899 -0.028602049 -0.024667032
-0.088523939 -0.028318115 -0.023619445
-0.089323908 -0.028162111 -0.022823544
-0.090125524 -0.028005783 -0.022025986
-0.093405254 -0.024594603 -0.014781064
-0.094320238 -0.024301257 -0.013705629
-0.096046872 -0.022948932 -0.010528669
-0.097174682 -0.022385549 -0.0089131696
-0.11032277 -0.028866133 -0.0088259438
-0.11041386 -0.029621756 -0.0098464238
-0.11061104 -0.030245408 -0.010601469
-0.1114473 -0.030088915 -0.0097789094
-0.11175021 -0.030582305 -0.010271253
-0.11226656 -0.030815722 -0.01023752
-0.11278293 -0.031049138 -0.010203786
-0.11308467 -0.031541504 -0.010695484
-0.11317161 -0.032291245 -0.01171047
-0.11336534 -0.032910336 -0.012461431
-0.11259846 -0.034678619 -0.01554999
-0.11183799 -0.036432128 -0.018612754
-0.11097894 -0.038296174 -0.021904774
-0.11075352 -0.039398707 -0.023649862
-0.11105114 -0.039876297 -0.024123272
-0.11166248 -0.039981175 -0.023836995
-0.11216921 -0.040210236 -0.023803888
-0.11257081 -0.040563241 -0.024023995
-0.11286697 -0.041039694 -0.024496818
-0.11337318 -0.04126852 -0.024463749
-0.11377394 -0.041620791 -0.024683399
-0.11396357 -0.042219143 -0.025407488
-0.11436359 -0.042570602 -0.025626509
-0.11486892 -0.042799033 -0.025593497
-0.1154801 -0.042904668 -0.025308415
-0.1159856 -0.043133173 -0.025275391
-0.11638492 -0.043484323 -0.025494458
-0.11689025 -0.04371275 -0.025461445
-0.11739559 -0.043941177 -0.025428433
-0.11800763 -0.044047203 -0.025143294
-0.11862011 -0.044153307 -0.024857957
-0.11912578 -0.04438189 -0.024824923
-0.11952415 -0.044732727 -0.02504422
-0.12002966 -0.044961236 -0.025011197
-0.082319967 -0.015498693 -0.0085595092
-0.080163874 -0.022303585 -0.019893456
-0.079917848 -0.023581291 -0.021907883
-0.079861306 -0.024592366 -0.023403071
-0.079898939 -0.025469948 -0.024638794
-0.080312259 -0.025828538 -0.024858914
-0.08081951 -0.026057836 -0.024825776
-0.081326768 -0.026287137 -0.024792638
-0.081644937 -0.026774116 -0.025265584
-0.082057223 -0.027131885 -0.02548526
-0.082563952 -0.027360946 -0.025452156
-0.08307068 -0.027590007 -0.025419053
-0.083482325 -0.02794737 -0.025638599
-0.083988883 -0.028176352 -0.025605507
-0.08449544 -0.028405333 -0.025572414
-0.085097596 -0.028506249 -0.025286634
-0.085604325 -0.028735308 -0.025253531
-0.086111054 -0.028964369 -0.025220426
-0.086617783 -0.029193429 -0.025187323
-0.087124512 -0.02942249 -0.025154218
-0.088211529 -0.028883673 -0.023600981
-0.088816434 -0.028984999 -0.023313828
-0.089616708 -0.028829688 -0.022517608
-0.092688851 -0.025691766 -0.015804026
-0.095715918 -0.022629226 -0.0092311651
-0.096233562 -0.022863217 -0.0091973487
-0.096954964 -0.022831466 -0.0086353477
-0.11020982 -0.029180994 -0.0082842931
-0.11051411 -0.029675895 -0.008778559
-0.11103139 -0.029909723 -0.0087447651
-0.11176273 -0.029882969 -0.0081828423
-0.11228038 -0.03011696 -0.008149026
-0.11236871 -0.030871086 -0.00917082
-0.11267108 -0.031364098 -0.0096637653
-0.11318761 -0.031597596 -0.0096300188
-0.1133818 -0.032218948 -0.010385027
-0.11314701 -0.033353437 -0.012185364
-0.11248736 -0.034992538 -0.015015803
-0.11172709 -0.036745351 -0.018081862
-0.11097313 -0.038483579 -0.021122411
-0.11074758 -0.039586417 -0.022870604
-0.11104542 -0.040064208 -0.02334488
-0.11144754 -0.040417384 -0.023565218
-0.11195427 -0.040646445 -0.023532115
-0.11214605 -0.04124663 -0.024258394
-0.11265225 -0.041475452 -0.024225324
-0.11294815 -0.041950952 -0.024697686
-0.11313857 -0.042548757 -0.02542151
-0.11353873 -0.042899981 -0.025640452
-0.11404389 -0.04312833 -0.02560745
-0.11465457 -0.043234039 -0.025322471
-0.11515991 -0.04346247 -0.025289457
-0.11555936 -0.043813381 -0.025508447
-0.11606453 -0.044041734 -0.025475442
-0.11646354 -0.044392321 -0.02569429
-0.11696852 -0.044620596 -0.025661301
-0.11768657 -0.044604614 -0.025124393
-0.11819191 -0.044833042 -0.025091382
-0.11880422 -0.044939376 -0.024806125
-0.11920257 -0.0452899 -0.025025355
-0.11981524 -0.045396391 -0.024740076
-0.079947211 -0.02274329 -0.019619502
-0.079701789 -0.024019774 -0.02163469
-0.079645701 -0.025029935 -0.023130447
-0.079589836 -0.026035903 -0.024619995
-0.080097094 -0.026265202 -0.024586856
-0.080416113 -0.0267522 -0.025059946
-0.080828816 -0.027109975 -0.025279693
-0.081241243 -0.027467504 -0.025499288
-0.081842281 -0.027568096 -0.025213486
-0.082254358 -0.027925467 -0.025433104
-0.082760908 -0.02815445 -0.025400011
-0.083172522 -0.028511494 -0.025619488
-0.083678901 -0.028740397 -0.025586408
-0.08418528 -0.028969297 -0.025553325
-0.084787123 -0.029070374 -0.025267638
-0.08529368 -0.029299354 -0.025234547
-0.085800231 -0.029528335 -0.025201455
-0.086402848 -0.029629638 -0.024915548
-0.086909577 -0.029858699 -0.024882443
-0.087512776 -0.029960152 -0.024596326
-0.088503927 -0.029550325 -0.02329547
-0.089206234 -0.029523814 -0.022753946
-0.089811906 -0.029625431 -0.022466298
-0.095496356 -0.023074824 -0.0089535387
-0.096013993 -0.023308817 -0.0089197224
-0.096837156 -0.023144528 -0.0080930553
-0.10977743 -0.029887356 -0.0085349213
-0.11008182 -0.030381413 -0.009028662
-0.11081198 -0.030355008 -0.0084673353
-0.11307586 -0.031912867 -0.0090896059
-0.11316293 -0.03266314 -0.01010828
-0.11292867 -0.033796534 -0.011909297
-0.11226986 -0.035433933 -0.014740798
-0.11182753 -0.036806297 -0.017035261
-0.11086236 -0.038796313 -0.02059442
-0.11053243 -0.040023081 -0.022598548
-0.1108304 -0.04050057 -0.02307301
-0.11112797 -0.040977396 -0.023546819
-0.11142512 -0.041453566 -0.024019971
-0.11193134 -0.041682389 -0.023986902
-0.11222773 -0.042157747 -0.024459425
-0.11231414 -0.04287814 -0.025435522
