# .PCD v0.7 - Point Cloud Data file format
VERSION 0.7
FIELDS x y z
SIZE 4 4 4
TYPE F F F
COUNT 1 1 1
WIDTH 1284
HEIGHT 1
VIEWPOINT 0 0 0 1 0 0 0
POINTS 1284
DATA ascii
-0.11747256 0.012021017 -0.014412402
-0.11689131 0.012300042 -0.014406418
-0.11641109 0.01278927 -0.014710614
-0.11583007 0.013068182 -0.014704633
-0.11514757 0.013137113 -0.014388472
-0.11456632 0.013416138 -0.014382489
-0.1141889 0.014114507 -0.01499663
-0.11360812 0.014393307 -0.014990651
-0.11282258 0.014253211 -0.014364542
-0.11193287 0.013902963 -0.013426485
-0.11145407 0.014392137 -0.013731439
-0.11118197 0.01529948 -0.014656791
-0.11080741 0.015996061 -0.015270466
-0.1109485 0.017730558 -0.017425505
-0.11057547 0.018422697 -0.018034767
-0.11010007 0.018907141 -0.018336058
-0.10952183 0.01918472 -0.018330105
-0.10873647 0.019049063 -0.01770941
-0.10784579 0.018706104 -0.01677949
-0.1072664 0.018984236 -0.016773526
-0.1072089 0.02029503 -0.0183063
-0.1069435 0.021189896 -0.019220654
-0.10657456 0.021877628 -0.019827032
-0.10599747 0.022154653 -0.019821092
-0.10542039 0.022431677 -0.019815151
-0.10452821 0.022093721 -0.018890344
-0.10384502 0.022165867 -0.018577617
-0.10358374 0.023058143 -0.019491281
-0.10311206 0.023539778 -0.019791393
-0.10253498 0.023816803 -0.019785454
-0.1019579 0.024093829 -0.019779515
-0.10138081 0.024370851 -0.019773575
-0.10080373 0.024647877 -0.019767633
-0.10022666 0.024924902 -0.019761695
-0.099649563 0.025201928 -0.019755755
-0.099072486 0.025478952 -0.019749815
-0.098495409 0.025755977 -0.019743875
-0.097162589 0.024605041 -0.017590284
-0.096692346 0.025087213 -0.017891873
-0.096222483 0.025568997 -0.018193219
-0.095861644 0.026254063 -0.01880114
-0.095501371 0.026938036 -0.019408092
-0.094815128 0.027012054 -0.019095821
-0.094346747 0.027492305 -0.01939621
-0.093660042 0.027566545 -0.01908393
-0.09319213 0.028046578 -0.019384325
-0.092504956 0.028121037 -0.019072043
-0.092147507 0.028803252 -0.019678539
-0.091460191 0.028877983 -0.019366499
-0.090882882 0.029155117 -0.019360555
-0.089861922 0.028622352 -0.018127752
-0.089283682 0.028899927 -0.018121799
-0.088928372 0.029582337 -0.018729778
-0.088350609 0.029859694 -0.018723831
-0.087772831 0.030137049 -0.018717883
-0.087195061 0.030414406 -0.018711938
-0.086617291 0.030691762 -0.018705992
-0.08592695 0.030767336 -0.018393191
-0.085236058 0.030842969 -0.01808014
-0.084657833 0.031120546 -0.018074188
-0.084079593 0.031398125 -0.018068235
-0.083614945 0.031877201 -0.018369392
-0.082923129 0.031953279 -0.018056333
-0.082230762 0.032029416 -0.017743023
-0.081652299 0.032307107 -0.017737068
-0.081073835 0.032584794 -0.017731115
-0.080495372 0.032862481 -0.01772516
-0.079801761 0.032939009 -0.017411595
-0.078992032 0.032814234 -0.016789669
-0.078064933 0.032487523 -0.015857901
-0.077368692 0.032564089 -0.015542833
-0.076671883 0.032640714 -0.015227513
-0.076208517 0.033121016 -0.015530892
-0.075862527 0.033802234 -0.016142888
-0.075400047 0.0342815 -0.016445536
-0.074585825 0.034157645 -0.01582209
-0.073297821 0.033226851 -0.013957725
-0.07200361 0.032291569 -0.012084368
-0.07142096 0.032571267 -0.012078371
-0.07083831 0.032850962 -0.012072373
-0.07025566 0.033130661 -0.012066376
-0.069673009 0.033410359 -0.01206038
-0.069090359 0.033690058 -0.012054382
-0.068507716 0.033969752 -0.012048386
-0.068527624 0.03525785 -0.013599242
-0.067946151 0.035536986 -0.013593258
-0.066638507 0.0346069 -0.011718268
-0.14633872 -0.0041855467 -0.010834329
-0.14593406 -0.0034699212 -0.011454042
-0.1466001 -0.00016340856 -0.015800092
-0.14646401 0.0011871853 -0.017336648
-0.14694619 0.0040194923 -0.021007763
-0.14619341 0.0038722574 -0.020391418
-0.14463788 0.0018071652 -0.017010752
-0.14405872 0.0020851863 -0.017004792
-0.14347957 0.0023632071 -0.016998829
-0.14308041 0.0030678913 -0.017608674
-0.14259186 0.0035586557 -0.017910255
-0.1420134 0.0038363438 -0.0179043
-0.14143492 0.0041140318 -0.017898347
-0.14103788 0.0048164772 -0.018506747
-0.14045988 0.0050939443 -0.018500797
-0.13969953 0.0049470966 -0.017880486
-0.13912109 0.0052247844 -0.017874533
-0.13854261 0.0055024731 -0.017868578
-0.13805604 0.0059920703 -0.018169936
-0.13756989 0.0064812773 -0.018471051
-0.13689958 0.0065472252 -0.018158032
-0.13622876 0.0066132257 -0.017844763
-0.13565029 0.0068909135 -0.017838808
-0.1348855 0.0067453836 -0.017217472
-0.13430656 0.0070232935 -0.017211514
-0.1339149 0.0077239783 -0.017820945
-0.13333644 0.0080016665 -0.017814992
-0.13275798 0.0082793543 -0.017809039
-0.13208522 0.0083460724 -0.017495504
-0.13160105 0.0088347299 -0.017797131
-0.13102259 0.0091124186 -0.017791176
-0.13044412 0.0093901064 -0.017785223
-0.12967515 0.0092465738 -0.017163845
-0.12900063 0.0093137305 -0.016849803
-0.1284215 0.0095917517 -0.016843842
-0.12793839 0.010080303 -0.017145967
-0.12755181 0.010778547 -0.017755453
-0.12706962 0.011266041 -0.018056855
-0.12629829 0.011124061 -0.017435942
-0.12562269 0.011191942 -0.017122133
-0.12504376 0.011469852 -0.017116174
-0.1236831 0.010064141 -0.014638486
-0.12329869 0.010764635 -0.015251929
-0.12281667 0.011253694 -0.015555298
-0.12233504 0.011742362 -0.015858423
-0.12155774 0.011600368 -0.01523401
-0.12087835 0.011668629 -0.014918441
-0.1199994 0.011315694 -0.01398218
-0.11941816 0.011594718 -0.013976198
-0.11903686 0.012294546 -0.014590663
-0.11865616 0.012993254 -0.015204146
-0.11807584 0.013271832 -0.015198173
-0.11739507 0.013340762 -0.014882589
-0.11681452 0.013619452 -0.014876613
-0.11623396 0.01389814 -0.014870638
-0.11555217 0.01396735 -0.014554796
-0.11527558 0.014873751 -0.01547768
-0.1146955 0.015152217 -0.015471709
-0.11411542 0.015430683 -0.015465738
-0.11333122 0.015291585 -0.014840761
-0.1124432 0.014943007 -0.013904407
-0.11227269 0.016057605 -0.015138442
-0.11210272 0.017168639 -0.016368533
-0.11183093 0.018069036 -0.017287033
-0.11166213 0.019173766 -0.018510267
-0.11128929 0.019863376 -0.01911745
-0.11050659 0.019728478 -0.018498372
-0.10992882 0.020005833 -0.018492427
-0.10914442 0.019870939 -0.017872356
-0.10835876 0.01973583 -0.017251296
-0.10788405 0.020219944 -0.017553018
-0.10772162 0.021320805 -0.01877534
-0.10745592 0.022213379 -0.019688046
-0.10698308 0.022694968 -0.019987838
-0.10640646 0.022971772 -0.019981906
-0.10582983 0.023248576 -0.01997597
-0.10535783 0.023729561 -0.020275529
-0.10509547 0.024617493 -0.021184634
-0.10451976 0.024893858 -0.021178709
-0.10394406 0.025170224 -0.021172782
-0.1027354 0.024224631 -0.019334555
-0.10215832 0.024501657 -0.019328615
-0.10158123 0.024778683 -0.019322677
-0.10100415 0.025055707 -0.019316737
-0.10042707 0.025332732 -0.019310797
-0.099849992 0.025609756 -0.019304857
-0.099272907 0.025886782 -0.019298919
-0.098695822 0.026163807 -0.019292977
-0.098118745 0.026440833 -0.019287037
-0.097001523 0.025700064 -0.017747374
-0.096964575 0.02699488 -0.019275159
-0.096279182 0.027068894 -0.018962957
-0.095593236 0.027142964 -0.018650508
-0.094906755 0.027217092 -0.018337809
-0.094438158 0.027697455 -0.018638618
-0.093969941 0.028177433 -0.018939188
-0.093502089 0.02865703 -0.019239519
-0.092925005 0.028934056 -0.019233579
-0.09234792 0.02921108 -0.019227641
-0.091770843 0.029488105 -0.019221701
-0.091083385 0.02956311 -0.018909479
-0.090062737 0.029030992 -0.017675955
-0.089484505 0.029308571 -0.017670002
-0.088794753 0.029383654 -0.017356539
-0.088328041 0.029863726 -0.0176581
-0.08797349 0.030545367 -0.018266447
-0.087619506 0.031225922 -0.018873826
-0.087042198 0.031503059 -0.018867884
-0.086240172 0.031377435 -0.018248608
-0.085436873 0.031251613 -0.017628342
-0.084858641 0.031529192 -0.017622391
-0.08439368 0.032008216 -0.017923726
-0.083588585 0.031882849 -0.017302955
-0.083010122 0.032160535 -0.017297
-0.082431659 0.032438222 -0.017291047
-0.081738822 0.032514583 -0.016977305
-0.081274733 0.0329936 -0.017279137
-0.080581427 0.033070184 -0.016965393
-0.08000274 0.033347979 -0.016959436
-0.079308651 0.033424735 -0.016645437
-0.078498207 0.033300299 -0.016022652
-0.077686459 0.033175662 -0.015398869
-0.076990068 0.033252504 -0.015083619
-0.076409981 0.033530969 -0.015077648
-0.075946905 0.034010727 -0.015380966
-0.075601265 0.034690961 -0.015992833
-0.074316733 0.03376219 -0.014130373
-0.073499687 0.033637628 -0.013503573
-0.072799928 0.033714835 -0.013186803
-0.071861647 0.033387892 -0.012246952
-0.071279474 0.033667367 -0.012240959
-0.07045801 0.033542424 -0.011611129
-0.069875367 0.033822119 -0.011605132
-0.069172464 0.033899594 -0.011286834
-0.068710066 0.034381516 -0.011593138
-0.068609335 0.035467599 -0.012833855
-0.068027616 0.035746846 -0.012827868
-0.066840932 0.035018828 -0.011262838
-0.065893188 0.034692671 -0.010318393
-0.14672001 -0.003337695 -0.01100425
-0.14667194 -0.0017567518 -0.012870485
-0.14715564 0.0011043776 -0.016582077
-0.14728309 0.0030889839 -0.019034782
-0.1469703 0.0040029581 -0.019946815
-0.14612848 0.0036432545 -0.019022899
-0.14483902 0.0022164613 -0.016558232
-0.14425986 0.0024944823 -0.016552271
-0.14368069 0.0027725031 -0.016546311
-0.1432814 0.0034768605 -0.017156517
-0.14279276 0.0039674616 -0.017458279
-0.1422143 0.0042451499 -0.017452324
-0.14181663 0.0049474905 -0.018061077
-0.14123863 0.0052249576 -0.018055128
-0.14056979 0.005290404 -0.017741943
-0.13980924 0.0051436545 -0.017120779
-0.13923053 0.0054214536 -0.017114822
-0.1387435 0.0059112785 -0.0174166
-0.13816504 0.0061889668 -0.017410647
-0.13777061 0.0068897577 -0.018019434
-0.1371004 0.0069558681 -0.017706234
-0.13652217 0.0072334455 -0.017700283
-0.13585119 0.0072997194 -0.017386831
-0.13517967 0.0073660463 -0.017073128
-0.13450763 0.0074324263 -0.016759176
-0.1340223 0.0079216445 -0.017061217
-0.13353734 0.0084104715 -0.017363014
-0.13305278 0.0088989092 -0.017664574
-0.13247453 0.0091764871 -0.017658621
-0.13180195 0.0092435367 -0.017345153
-0.13122348 0.0095212245 -0.0173392
-0.13064502 0.0097989133 -0.017333245
-0.12987623 0.0096557057 -0.016711505
-0.1292973 0.009933616 -0.016705547
-0.12862262 0.010001048 -0.016391322
-0.12813945 0.010489435 -0.016693629
-0.12775271 0.011187353 -0.017303474
-0.12727045 0.011674684 -0.017605057
-0.12659577 0.01174273 -0.017291566
-0.12582375 0.011601076 -0.016669795
-0.12446558 0.010195784 -0.014190675
-0.12368875 0.010052321 -0.013563923
-0.1232058 0.01054245 -0.013868454
-0.12321433 0.012083776 -0.015720356
-0.12263471 0.012362019 -0.015714392
-0.12195656 0.012430504 -0.015399393
-0.12107997 0.012078908 -0.014464834
-0.12049942 0.012357597 -0.014458858
-0.11981934 0.012426189 -0.014142853
-0.11933833 0.012914975 -0.014446908
-0.11895754 0.013612907 -0.01506026
-0.11837746 0.013891373 -0.015054289
-0.11779738 0.014169839 -0.015048319
-0.11721729 0.014448306 -0.015042348
-0.11663722 0.01472677 -0.015036377
-0.11635966 0.015631175 -0.015957577
-0.11588118 0.016117508 -0.016260177
-0.11530203 0.016395528 -0.016254216
-0.11472286 0.01667355 -0.016248256
-0.11424523 0.017159274 -0.016550621
-0.11386959 0.017851871 -0.01716058
-0.1135961 0.018750014 -0.018076669
-0.11312006 0.01923375 -0.018377585
-0.11254252 0.019510994 -0.01837164
-0.11216912 0.020200064 -0.018978693
-0.11159204 0.020477088 -0.018972753
-0.11101496 0.020754112 -0.018966813
-0.11012948 0.020414149 -0.018040989
-0.10934523 0.020279583 -0.017420558
-0.108767 0.02055716 -0.017414607
-0.10818876 0.020834738 -0.017408656
-0.10874965 0.023366161 -0.020770365
-0.10817394 0.023642527 -0.020764438
-0.10759824 0.023918891 -0.020758513
-0.10702253 0.024195258 -0.020752586
-0.10644682 0.02447162 -0.020746661
-0.10587112 0.024747986 -0.020740736
-0.10529541 0.025024351 -0.020734809
-0.10471971 0.025300717 -0.020728886
-0.10456306 0.02638828 -0.021940356
-0.10377844 0.026259148 -0.02132622
-0.10235874 0.024909487 -0.018877719
-0.10178164 0.025186513 -0.018871777
-0.10120457 0.025463536 -0.018865837
-0.10062749 0.025740562 -0.018859897
-0.1000504 0.026017586 -0.018853959
-0.09947332 0.026294611 -0.018848019
-0.099003471 0.026774768 -0.019148266
-0.098426618 0.027051682 -0.019142328
-0.097849771 0.027328596 -0.019136392
-0.097380742 0.027808148 -0.019436406
-0.096587911 0.027679736 -0.018818319
-0.096010834 0.02795676 -0.018812381
-0.095216282 0.027828364 -0.018193306
-0.094856665 0.028510811 -0.018800501
-0.094388656 0.028990084 -0.019100767
-0.093811795 0.029266998 -0.01909483
-0.093234949 0.029543912 -0.019088892
-0.092548341 0.02961891 -0.018776741
-0.091971263 0.029895935 -0.018770801
-0.091063 0.029566903 -0.017844744
-0.090374433 0.029642029 -0.0175316
-0.089685321 0.029717214 -0.017218204
-0.089107089 0.029994791 -0.017212253
-0.088528857 0.03027237 -0.017206302
-0.087950625 0.030549945 -0.017200349
-0.087708235 0.031432558 -0.018116027
-0.087130688 0.031709801 -0.018110083
-0.086440831 0.031785753 -0.017797168
-0.085750416 0.031861763 -0.017484007
-0.085059464 0.03193783 -0.017170593
-0.084594414 0.032416694 -0.017472107
-0.083789483 0.032291654 -0.016850974
-0.08321102 0.032569341 -0.016845021
-0.082404338 0.032444321 -0.016222892
-0.081710935 0.032520745 -0.015908474
-0.081246488 0.033000138 -0.016210975
-0.080782406 0.033479154 -0.016513234
-0.080318704 0.033957783 -0.016815253
-0.079625025 0.034034748 -0.016501322
-0.078815155 0.033910852 -0.015878668
-0.07812003 0.033987891 -0.015563988
-0.077191524 0.033662453 -0.014630374
-0.076611444 0.033940919 -0.014624404
-0.076148286 0.034420513 -0.014927902
-0.075568438 0.034698866 -0.014921934
-0.074518435 0.034172636 -0.013676585
-0.073819652 0.034249999 -0.013360138
-0.073001876 0.034125775 -0.012732469
-0.072420396 0.034404911 -0.012726483
-0.07148166 0.034078799 -0.011786077
-0.07066036 0.033954188 -0.011155882
-0.07007771 0.034233883 -0.011149885
-0.069134265 0.033906911 -0.010205683
-0.068550915 0.034186948 -0.010199679
-0.068329774 0.035072975 -0.011131894
-0.067747124 0.035352673 -0.011125896
-0.066679448 0.034824952 -0.0098684188
-0.14642856 -0.0024283116 -0.010855299
-0.14638121 -0.00085019181 -0.012721144
-0.14686611 0.0020054507 -0.016431969
-0.14681806 0.003561656 -0.018271105
-0.1462405 0.0038389019 -0.01826516
-0.14557421 0.0039037438 -0.017952308
-0.14446101 0.0029037783 -0.016099753
-0.14397149 0.0033950002 -0.016402176
-0.14357211 0.0040985798 -0.017012255
-0.14299366 0.004376268 -0.0170063
-0.1424152 0.0046539558 -0.017000346
-0.14201736 0.0053559709 -0.01760946
-0.14134885 0.0054214699 -0.017296096
-0.14058889 0.0052748253 -0.016674578
-0.13991901 0.0053403699 -0.016360464
-0.13943152 0.005830423 -0.016662665
-0.13885282 0.0061082221 -0.016656708
-0.13827412 0.0063860207 -0.016650751
-0.13797136 0.0072982376 -0.017567815
-0.13730122 0.0073645115 -0.017254436
-0.13681535 0.0078531718 -0.017555919
-0.13605209 0.0077085258 -0.016934853
-0.13547362 0.007986214 -0.016928898
-0.13480195 0.0080528148 -0.016615013
-0.13441005 0.0087523982 -0.017224679
-0.13383181 0.0090299761 -0.017218728
-0.13325359 0.0093075531 -0.017212776
-0.13267535 0.009585131 -0.017206823
-0.13209713 0.0098627079 -0.017200872
-0.13142438 0.0099300304 -0.01688722
-0.13084592 0.010207719 -0.016881268
-0.13026746 0.010485407 -0.016875314
-0.1295937 0.010553005 -0.016561408
-0.12891944 0.010620658 -0.01624725
-0.12843633 0.011108603 -0.016549494
-0.12804949 0.011805749 -0.017159212
-0.12747125 0.012083326 -0.017153259
-0.12679666 0.012151536 -0.01683959
-0.12592798 0.011800448 -0.015908998
-0.12476488 0.010817054 -0.01404708
-0.1239886 0.010674147 -0.013420464
-0.12360379 0.011374432 -0.01403513
-0.12341563 0.0124934 -0.015267476
-0.12283601 0.012771644 -0.015261509
-0.12235475 0.013259314 -0.015564512
-0.12147934 0.012908994 -0.014630899
-0.12070104 0.012767876 -0.014005252
-0.1201205 0.013046566 -0.013999277
-0.11963956 0.013534907 -0.014303268
-0.11945782 0.014649974 -0.015534693
-0.11887842 0.014928106 -0.01552873
-0.11829904 0.015206239 -0.015522767
-0.11791985 0.015900947 -0.016134035
-0.11774128 0.017009573 -0.017359594
-0.11736343 0.017701183 -0.017967938
-0.1167859 0.01797843 -0.017961992
-0.11620835 0.018255675 -0.017956048
-0.11563081 0.018532921 -0.017950105
-0.11525495 0.019222768 -0.018557493
-0.11487968 0.019911518 -0.019163916
-0.11430306 0.020188322 -0.01915798
-0.11362512 0.020259567 -0.018845981
-0.11304826 0.020536482 -0.018840045
-0.11236954 0.020607892 -0.018527795
-0.11189456 0.021090312 -0.018828169
-0.1113177 0.021367226 -0.01882223
-0.11074086 0.02164414 -0.018816294
-0.10975236 0.021099824 -0.017583605
-0.10917459 0.02137718 -0.017577657
-0.1095253 0.023496654 -0.020326465
-0.10894959 0.02377302 -0.02032054
-0.10837389 0.024049385 -0.020314615
-0.10779817 0.024325751 -0.020308688
-0.10722247 0.024602113 -0.020302763
-0.10664676 0.02487848 -0.020296836
-0.10607105 0.025154844 -0.020290913
-0.10549535 0.02543121 -0.020284986
-0.10512872 0.026113393 -0.020888593
-0.10486717 0.02699673 -0.021795169
-0.10429259 0.027272549 -0.021789255
-0.10255915 0.025317317 -0.018426819
-0.10198207 0.025594341 -0.018420879
-0.10140498 0.025871366 -0.018414941
-0.1008279 0.026148392 -0.018409001
-0.10025083 0.026425418 -0.018403061
-0.099780664 0.02690552 -0.018703485
-0.099417858 0.027587887 -0.019309549
-0.099162571 0.028471222 -0.020219805
-0.098586865 0.028747587 -0.02021388
-0.097796246 0.028620126 -0.019597394
-0.097112276 0.028694663 -0.01928582
-0.096535884 0.028971359 -0.019279886
-0.095742695 0.028843923 -0.018661922
-0.095165841 0.029120838 -0.018655986
-0.094588988 0.029397752 -0.018650049
-0.094012141 0.029674668 -0.018644111
-0.093435287 0.029951582 -0.018638175
-0.092858434 0.030228497 -0.018632237
-0.092171676 0.030303765 -0.018319905
-0.091263667 0.029975221 -0.017393306
-0.090685889 0.030252578 -0.01738736
-0.089886136 0.030125856 -0.016766407
-0.089419171 0.030605443 -0.017068084
-0.088618085 0.030478952 -0.016446628
-0.08815144 0.030958589 -0.016748553
-0.0875732 0.031236166 -0.016742602
-0.087219261 0.031916715 -0.01735168
-0.08664149 0.032194071 -0.017345732
-0.08606372 0.032471426 -0.017339785
-0.085373156 0.032547709 -0.017026439
-0.084795147 0.032825176 -0.01702049
-0.08399038 0.032700457 -0.016398998
-0.083411917 0.032978147 -0.016393043
-0.082605392 0.032853451 -0.015770553
-0.081912071 0.032930039 -0.015455956
-0.081332915 0.033208061 -0.015449994
-0.080983385 0.03388812 -0.016061075
-0.080519602 0.034366589 -0.016363274
-0.079941139 0.034644276 -0.016357321
-0.079016291 0.034320146 -0.01542615
-0.078321256 0.034397349 -0.015111288
-0.077509366 0.034273591 -0.014486777
-0.076812893 0.034350872 -0.014171161
-0.076232821 0.034629337 -0.01416519
-0.075769812 0.035108656 -0.014468872
-0.075072646 0.035186268 -0.014153249
-0.074139357 0.034861881 -0.013216818
-0.073203817 0.034536712 -0.012278134
-0.072622336 0.034815848 -0.012272149
-0.071921952 0.034893561 -0.011954757
-0.07086271 0.034365952 -0.010700634
-0.070040256 0.034241471 -0.010069058
-0.069216475 0.034116786 -0.0094364649
-0.068632886 0.034396935 -0.0094304578
-0.068049304 0.034677081 -0.0094244517
-0.1459585 -0.0019531047 -0.010080648
-0.14600153 -0.00015984112 -0.01226064
-0.14693043 0.0037573487 -0.017512765
-0.14635265 0.0040347045 -0.017506817
-0.14577487 0.0043120608 -0.017500872
-0.14501905 0.0041646487 -0.016880009
-0.14444083 0.0044422261 -0.016874058
-0.143773 0.0045073861 -0.016560275
-0.14319456 0.0047850744 -0.016554322
-0.14261609 0.0050627622 -0.016548369
-0.14203762 0.0053404504 -0.016542414
-0.14136858 0.0054059955 -0.016228374
-0.14078987 0.0056837942 -0.016222417
-0.14002888 0.0055372422 -0.015599543
-0.13944972 0.0058152629 -0.015593582
-0.13887057 0.0060932841 -0.015587621
-0.13829142 0.0063713049 -0.01558166
-0.13780437 0.0068611423 -0.015884291
-0.13740991 0.0075619556 -0.016494783
-0.13683145 0.0078396443 -0.016488828
-0.13625298 0.0081173312 -0.016482875
-0.13567452 0.0083950199 -0.016476922
-0.13509606 0.0086727086 -0.016470967
-0.13461088 0.0091610411 -0.016772881
-0.13412607 0.0096489852 -0.017074555
-0.13364166 0.010136539 -0.017375989
-0.13306388 0.010413895 -0.017370041
-0.13229795 0.010271351 -0.016749075
-0.13181408 0.010758852 -0.017050758
-0.13123606 0.011036319 -0.017044809
-0.13056324 0.011104083 -0.016731219
-0.12988989 0.011171902 -0.01641738
-0.12921599 0.011239774 -0.016103292
-0.1286373 0.011517573 -0.016097335
-0.1282503 0.012214392 -0.016707415
-0.12767208 0.01249197 -0.016701462
-0.12699756 0.012560342 -0.016387612
-0.12593541 0.01179005 -0.014838458
-0.1253558 0.012068294 -0.014832492
-0.12458122 0.011926616 -0.014207508
-0.12409887 0.012415015 -0.014511173
-0.12371475 0.01311251 -0.015123737
-0.12323334 0.013599849 -0.015426672
-0.12285036 0.014295563 -0.016037773
-0.12207502 0.014155892 -0.01541475
-0.12159445 0.01464262 -0.015717449
-0.12101553 0.014920529 -0.015711488
-0.12053557 0.015406759 -0.016013946
-0.12035292 0.016515732 -0.017239209
-0.11997314 0.01720746 -0.017847406
-0.11949494 0.017691424 -0.018148173
-0.1191163 0.018381391 -0.018754922
-0.11863901 0.018864311 -0.019054966
-0.11806262 0.019141007 -0.019049034
-0.11738644 0.019211804 -0.018737115
-0.11680982 0.019488608 -0.018731181
-0.11633344 0.019971089 -0.019031236
-0.11585745 0.020453187 -0.019331053
-0.11528129 0.020729771 -0.019325122
-0.11460426 0.020801174 -0.019013437
-0.11392669 0.020872634 -0.018701505
-0.11345147 0.021354564 -0.019001573
-0.11287508 0.021631256 -0.018995639
-0.11250216 0.022317272 -0.019600993
-0.11202806 0.022798054 -0.019900342
-0.11145236 0.023074418 -0.019894419
-0.11087665 0.023350785 -0.019888492
-0.11030094 0.023627147 -0.019882567
-0.10972524 0.023903513 -0.019876642
-0.10914953 0.024179878 -0.019870715
-0.10857382 0.024456244 -0.01986479
-0.10799812 0.024732608 -0.019858865
-0.10742241 0.025008973 -0.01985294
-0.10684671 0.025285337 -0.019847013
-0.106271 0.025561703 -0.019841088
-0.10569529 0.025838068 -0.019835163
-0.10564128 0.027126966 -0.02135215
-0.1050667 0.027402783 -0.021346236
-0.10449214 0.0276786 -0.021340322
-0.10391757 0.027954418 -0.021334408
-0.10292217 0.027422281 -0.020110611
-0.10213532 0.027293816 -0.01949429
-0.10102832 0.026556222 -0.017958101
-0.10055786 0.027036272 -0.018258704
-0.10019442 0.027718537 -0.018865122
-0.099938214 0.028601715 -0.019775908
-0.099576004 0.029281383 -0.02037992
-0.099000752 0.02955753 -0.020373996
-0.098425508 0.029833673 -0.020368077
-0.097635388 0.029707177 -0.019752204
-0.096951894 0.029782087 -0.019440938
-0.096159667 0.029655397 -0.018823594
-0.095583275 0.029932091 -0.018817661
-0.094789326 0.02980542 -0.01819933
-0.09421248 0.030082334 -0.018193392
-0.093635626 0.03035925 -0.018187454
-0.092949174 0.030434571 -0.017874945
-0.09237209 0.030711595 -0.017869005
-0.09168487 0.030787086 -0.017556246
-0.091107562 0.031064222 -0.017550303
-0.090308778 0.030938249 -0.016929975
-0.089619912 0.031013921 -0.016616467
-0.088930488 0.031089654 -0.016302709
-0.088352256 0.031367231 -0.016296756
-0.087774023 0.03164481 -0.016290804
-0.087195791 0.031922385 -0.016284853
-0.086617559 0.032199964 -0.0162789
-0.086264372 0.03287974 -0.016888348
-0.085686602 0.033157099 -0.016882401
-0.084882855 0.033032697 -0.016261045
-0.084304623 0.033310272 -0.016255094
-0.083726391 0.033587851 -0.016249144
-0.082806453 0.033262584 -0.015318214
-0.082113214 0.033339337 -0.015003435
-0.081648603 0.033818405 -0.015306298
-0.081184365 0.03429709 -0.015608917
-0.080605671 0.034574889 -0.015602961
-0.080026977 0.034852687 -0.015597004
-0.079217426 0.034729443 -0.01497363
-0.078522474 0.03480681 -0.014658587
-0.077710748 0.03468338 -0.014033714
-0.077014357 0.034760822 -0.013717917
-0.07643427 0.035039287 -0.013711946
-0.075971201 0.035518445 -0.014015809
-0.075156778 0.035395481 -0.013389921
-0.074341059 0.035272323 -0.01276303
-0.073405765 0.034947652 -0.011823799
-0.072824284 0.035226788 -0.011817815
-0.072123975 0.035304666 -0.011500241
-0.070945524 0.03457576 -0.0099325432
-0.070122801 0.034451395 -0.0093000941
-0.069298759 0.034326836 -0.0086666271
-0.14557774 -0.0012608094 -0.0096188458
-0.14615686 0.0018191553 -0.013665203
-0.14611039 0.0033795359 -0.015515374
-0.14597553 0.0047203782 -0.017049434
-0.14530885 0.0047855978 -0.016735971
-0.14481997 0.0052750907 -0.017037541
-0.14406341 0.005128446 -0.016416309
-0.14339545 0.0051938808 -0.016102344
-0.14254664 0.0048344545 -0.015170868
-0.14214824 0.0055371658 -0.015782174
-0.14138834 0.0053904965 -0.015158946
-0.14062719 0.0052435924 -0.014534722
-0.13986485 0.0050964532 -0.0139095
-0.13910128 0.0049490784 -0.013283277
-0.13870469 0.0056533851 -0.01389756
-0.1382167 0.0061442931 -0.014201348
-0.13772909 0.0066348086 -0.014504894
-0.1374265 0.0075481846 -0.015425994
-0.13694 0.0080373567 -0.015728567
-0.1363613 0.0083151553 -0.01572261
-0.13578261 0.0085929548 -0.015716653
-0.13520391 0.0088707535 -0.015710697
-0.13471849 0.0093592023 -0.016013036
-0.13432682 0.010057465 -0.016622936
-0.13384232 0.010544857 -0.016924551
-0.13335821 0.011031861 -0.017225923
-0.13268678 0.011099569 -0.016912656
-0.13220313 0.011586352 -0.017214034
-0.13153124 0.011654282 -0.016900763
-0.13095346 0.011931637 -0.016894815
-0.13009079 0.011580708 -0.015965404
-0.12941697 0.011648743 -0.015651135
-0.12883827 0.011926542 -0.015645178
-0.1283554 0.012413772 -0.015947543
-0.12777694 0.012691461 -0.015941588
-0.1271022 0.012759939 -0.01562731
-0.12623352 0.012409441 -0.014694891
-0.12565413 0.012687573 -0.014688928
-0.12497746 0.01275616 -0.014373645
-0.12449536 0.013243837 -0.014677001
-0.12411121 0.013940113 -0.015288944
-0.12372769 0.014635277 -0.01589991
-0.12383228 0.016367352 -0.018045479
-0.12315784 0.016437104 -0.017732913
-0.12248288 0.01650691 -0.017420098
-0.12200368 0.016991153 -0.017721033
-0.1214266 0.017268179 -0.017715093
-0.12094802 0.017751927 -0.018015791
-0.12046981 0.018235289 -0.018316252
-0.11999198 0.018718265 -0.01861647
-0.11941559 0.018994961 -0.018610539
-0.11913648 0.019888533 -0.019521628
-0.11856078 0.020164898 -0.019515701
-0.11798507 0.020441264 -0.019509776
-0.11740936 0.020717628 -0.01950385
-0.11683366 0.020993995 -0.019497925
-0.11635803 0.021475108 -0.019797198
-0.11588278 0.021955842 -0.020096235
-0.11500592 0.021618392 -0.019174701
-0.11442999 0.021894868 -0.019168772
-0.11405613 0.02258013 -0.019773506
-0.11337942 0.022652181 -0.019462371
-0.11280371 0.022928547 -0.019456446
-0.11222801 0.023204912 -0.019450519
-0.1116523 0.023481278 -0.019444594
-0.11107659 0.02375764 -0.019438669
-0.11050089 0.024034007 -0.019432742
-0.10992518 0.024310371 -0.019426817
-0.10934947 0.024586737 -0.019420892
-0.10877377 0.024863102 -0.019414967
-0.10819805 0.025139466 -0.01940904
-0.10762235 0.02541583 -0.019403117
-0.10704664 0.025692197 -0.01939719
-0.10647094 0.025968561 -0.019391265
-0.10599942 0.026447702 -0.019690581
-0.10584081 0.027533019 -0.020903217
-0.10526625 0.027808834 -0.020897303
-0.10469168 0.028084652 -0.020891391
-0.10411712 0.028360469 -0.020885475
-0.10354255 0.028636286 -0.020879563
-0.10254656 0.028105233 -0.019655041
-0.1017594 0.02797731 -0.019038359
-0.10118347 0.028253784 -0.01903243
-0.10071386 0.028732209 -0.019332008
-0.10024464 0.029210253 -0.01963135
-0.099775784 0.029687917 -0.019930452
-0.099093683 0.029762764 -0.019619502
-0.0985182 0.030039018 -0.019613579
-0.097942725 0.030315273 -0.019607656
-0.097259626 0.030390399 -0.019296456
-0.096575983 0.030465582 -0.018985007
-0.095783457 0.030339435 -0.0183673
-0.094989672 0.030213088 -0.017748611
-0.094303757 0.03028835 -0.017435927
-0.093835957 0.030766916 -0.017736737
-0.093259111 0.031043831 -0.017730799
-0.09257251 0.031119425 -0.017418109
-0.091995433 0.031396449 -0.017412169
-0.091418348 0.031673476 -0.017406227
-0.09062013 0.031548038 -0.016786033
-0.089931667 0.031623926 -0.016472591
-0.089131311 0.031498298 -0.015850909
-0.088553078 0.031775877 -0.015844958
-0.087974839 0.032053452 -0.015839007
-0.087396607 0.032331031 -0.015833054
-0.086818375 0.03260861 -0.015827104
-0.086352631 0.033087205 -0.016129155
-0.08577463 0.033364668 -0.016123205
-0.085083678 0.033441339 -0.015809249
-0.084505446 0.033718918 -0.015803296
-0.083927214 0.033996493 -0.015797345
-0.083348982 0.034274071 -0.015791394
-0.082542732 0.034150463 -0.015168671
-0.081849664 0.034227535 -0.014853959
-0.081385344 0.03470606 -0.015156759
-0.080691807 0.034783356 -0.014842041
-0.079882473 0.034660004 -0.014217814
-0.079303078 0.034938138 -0.01421185
-0.07860788 0.03501562 -0.013896378
-0.077446662 0.034288764 -0.01233913
-0.076865882 0.034567565 -0.012333153
-0.076402076 0.035047486 -0.012637933
-0.075938635 0.035527021 -0.012942469
-0.075240985 0.035604861 -0.012625982
-0.074660428 0.035883553 -0.012620007
-0.073961981 0.035961568 -0.012303264
-0.073026232 0.035637721 -0.011363479
-0.071730837 0.034707878 -0.0094831111
-0.070908748 0.034583621 -0.0088503007
-0.070205413 0.034661494 -0.0085305106
-0.14564511 0.0005110139 -0.010721567
-0.14586714 0.0027217453 -0.013515962
-0.14608759 0.0049166111 -0.016290303
-0.14550959 0.0051940782 -0.016284356
-0.14510962 0.0058951029 -0.016893554
-0.14435358 0.0057490109 -0.016272457
-0.14332694 0.0049657295 -0.01472431
-0.14256735 0.0048184856 -0.014099739
-0.14198773 0.0050967294 -0.014093773
-0.14131734 0.0051623075 -0.013778127
-0.1406464 0.0052279388 -0.013462227
-0.13979192 0.0048675458 -0.012524966
-0.13921113 0.0051463461 -0.012518989
-0.13872235 0.0056380467 -0.012823694
-0.13832606 0.006341802 -0.013438345
-0.13783823 0.0068324348 -0.013742317
-0.13762756 0.0079573169 -0.014973654
-0.13704863 0.0082352273 -0.014967696
-0.13656229 0.0087241251 -0.015270451
-0.13607632 0.0092126317 -0.015572966
-0.13549785 0.0094903205 -0.015567012
-0.13491939 0.0097680083 -0.015561057
-0.13452755 0.010465945 -0.016171319
-0.13413633 0.01116277 -0.016780609
-0.13355879 0.011440015 -0.016774666
-0.13298124 0.011717262 -0.01676872
-0.1324037 0.011994507 -0.016762776
-0.13173188 0.012062599 -0.016449325
-0.13115412 0.012339955 -0.016443379
-0.13029169 0.011989513 -0.015513426
-0.12961794 0.012057712 -0.015198976
-0.12913474 0.012544891 -0.015501518
-0.1285563 0.012822579 -0.015495565
-0.12797783 0.013100266 -0.01548961
-0.12720691 0.012959695 -0.014866399
-0.12653139 0.013028337 -0.014551438
-0.12595224 0.013306357 -0.014545478
-0.12537308 0.013584379 -0.014539517
-0.1248912 0.014071336 -0.014842563
-0.12508951 0.016013859 -0.017299833
-0.12460946 0.016498106 -0.017600697
-0.1244209 0.017601818 -0.018819544
-0.12394208 0.018084472 -0.019119207
-0.12326904 0.018154768 -0.018807691
-0.1226931 0.018431243 -0.018801762
-0.12211716 0.018707719 -0.018795833
-0.1217372 0.01939551 -0.019400861
-0.12116172 0.019671764 -0.01939494
-0.12068456 0.020153213 -0.019694136
-0.12010931 0.02042936 -0.019688215
-0.11963277 0.020910319 -0.019987177
-0.11895882 0.020981651 -0.019676372
-0.11838357 0.021257795 -0.019670453
-0.11780832 0.021533942 -0.019664532
-0.11723307 0.021810086 -0.019658612
-0.11665782 0.022086233 -0.019652689
-0.11608256 0.022362379 -0.019646769
-0.11540694 0.022434317 -0.019335706
-0.11483146 0.022710571 -0.019329784
-0.11455825 0.023598306 -0.020238571
-0.11398346 0.023874233 -0.020232655
-0.11300365 0.023335405 -0.019006623
-0.11242794 0.023611771 -0.019000696
-0.11185224 0.023888133 -0.018994771
-0.11127653 0.0241645 -0.018988844
-0.11070082 0.024440864 -0.018982919
-0.11012512 0.02471723 -0.018976994
-0.10954941 0.024993595 -0.018971067
-0.1089737 0.025269959 -0.018965144
-0.108398 0.025546324 -0.018959217
-0.10782229 0.02582269 -0.018953292
-0.10724659 0.026099054 -0.018947367
-0.10677476 0.026578143 -0.019246859
-0.10640727 0.027259145 -0.019851051
-0.10604036 0.02793907 -0.020454284
-0.10546579 0.028214885 -0.02044837
-0.10489123 0.028490704 -0.020442458
-0.10421196 0.028564986 -0.02013208
-0.10363717 0.028840913 -0.020126164
-0.10285182 0.028713726 -0.01951059
-0.10217094 0.028788185 -0.019199472
-0.10148951 0.028862702 -0.018888108
-0.1009138 0.029139066 -0.018882185
-0.1004445 0.029616948 -0.019181704
-0.099869028 0.029893206 -0.019175779
-0.099293537 0.030169461 -0.019169858
-0.098718062 0.030445715 -0.019163935
-0.098142587 0.03072197 -0.019158011
-0.097567111 0.030998226 -0.019152088
-0.096883856 0.031073622 -0.018840706
-0.095875293 0.030545389 -0.017610505
-0.095081255 0.030419156 -0.016990969
-0.09450417 0.03069618 -0.016985027
-0.093927093 0.030973205 -0.016979087
-0.093350016 0.031250227 -0.016973149
-0.092882589 0.031728413 -0.017274143
-0.092195846 0.031804278 -0.016961269
-0.091618769 0.032081302 -0.016955329
-0.091041684 0.03235833 -0.016949391
-0.090243168 0.032233439 -0.01632883
-0.089443386 0.032108348 -0.015707282
-0.088865377 0.032385815 -0.015701333
-0.088175662 0.032462098 -0.015387209
-0.08759743 0.032739673 -0.015381257
-0.087019198 0.033017252 -0.015375306
-0.086553365 0.033495683 -0.015677538
-0.085975364 0.03377315 -0.015671587
-0.085284494 0.033849984 -0.015357452
-0.084932372 0.034528445 -0.015967632
-0.08412803 0.034405135 -0.015345547
-0.083549798 0.034682717 -0.015339597
-0.082743704 0.034559429 -0.014716513
-0.082050718 0.034636669 -0.01440162
-0.081471793 0.034914583 -0.014395662
-0.080663078 0.034791332 -0.013771078
-0.079968423 0.034868758 -0.013455427
-0.079273209 0.034946244 -0.013139525
-0.078577444 0.035023794 -0.012823371
-0.077415235 0.034296371 -0.011262724
-0.076717049 0.034373846 -0.010945055
-0.076369822 0.035055693 -0.011562197
-0.076023147 0.035736453 -0.01217835
-0.075442597 0.036015142 -0.012172375
-0.074744463 0.036093213 -0.011855452
-0.07404577 0.036171343 -0.011538276
-0.073228173 0.036048662 -0.010909146
-0.071933262 0.035119809 -0.0090276804
-0.071111344 0.034995884 -0.0083945049
-0.070408091 0.035073921 -0.0080745304
-0.14597961 0.0029179633 -0.012752379
-0.14593357 0.0044757109 -0.014604738
-0.14579907 0.0058143693 -0.016140612
-0.14522129 0.0060917255 -0.016134664
-0.14455432 0.0061574914 -0.015820839
-0.14352807 0.0053750258 -0.01427179
-0.14276867 0.0052281092 -0.013646857
-0.14218904 0.0055063525 -0.013640892
-0.14160942 0.0057845959 -0.013634926
-0.1410298 0.0060628392 -0.013628961
-0.14026777 0.0059163556 -0.013003013
-0.13950454 0.0057696374 -0.012376063
-0.1391076 0.0064732875 -0.012991072
-0.13861947 0.0069638677 -0.013295223
-0.13813169 0.0074540554 -0.01359913
-0.13782862 0.0083664507 -0.014521317
-0.13743414 0.009066062 -0.015132896
-0.13685568 0.0093437498 -0.015126942
-0.13627721 0.0096214376 -0.015120988
-0.13569875 0.0098991273 -0.015115034
-0.13512029 0.010176815 -0.015109079
-0.13482141 0.011084136 -0.016027622
-0.13433692 0.011570925 -0.016329352
-0.13375936 0.01184817 -0.016323408
-0.13308808 0.011916204 -0.016009782
-0.13241628 0.011984292 -0.015695905
-0.13193254 0.012470917 -0.015997889
-0.13135476 0.012748273 -0.015991941
-0.130777 0.013025629 -0.015985994
-0.1299141 0.012676008 -0.015055494
-0.12933564 0.012953696 -0.01504954
-0.12904368 0.013857697 -0.015968153
-0.12846591 0.014135053 -0.015962208
-0.12788814 0.01441241 -0.01595626
-0.12682903 0.013646738 -0.014408101
-0.1262501 0.013924648 -0.014402143
-0.12576807 0.014411275 -0.014705123
-0.12586701 0.016144665 -0.016854875
-0.12567638 0.017249377 -0.018075392
-0.12529343 0.017938601 -0.018681234
-0.12481445 0.018420931 -0.018980833
-0.12423898 0.018697185 -0.018974911
-0.12366349 0.01897344 -0.018968986
-0.12308801 0.019249694 -0.018963065
-0.12251253 0.019525951 -0.01895714
-0.12213256 0.020212548 -0.019561561
-0.1214596 0.020283604 -0.019250588
-0.12108061 0.020969328 -0.01985454
-0.12060405 0.021449693 -0.020153198
-0.12002949 0.021725507 -0.020147283
-0.11945492 0.022001326 -0.020141371
-0.11878143 0.022073034 -0.019830873
-0.11830579 0.02255296 -0.020129543
-0.11743285 0.022216624 -0.019209145
-0.1168576 0.022492768 -0.019203221
-0.11628235 0.022768913 -0.019197302
-0.1157071 0.023045059 -0.019191381
-0.11513185 0.023321206 -0.019185461
-0.11465728 0.023801016 -0.019484621
-0.11408225 0.02407705 -0.019478703
-0.11320359 0.023742264 -0.018556798
-0.11262789 0.024018627 -0.018550873
-0.11205218 0.024294993 -0.018544946
-0.11147647 0.024571357 -0.018539021
-0.11120714 0.025457231 -0.019449109
-0.11073431 0.025936006 -0.019748049
-0.10974935 0.025400452 -0.018521244
-0.10917365 0.025676817 -0.018515319
-0.10859794 0.025953183 -0.018509394
-0.10802223 0.026229547 -0.018503468
-0.1075501 0.026708584 -0.018803136
-0.10718199 0.027389484 -0.01940768
-0.10681447 0.028069304 -0.020011267
-0.1062399 0.028345121 -0.020005353
-0.10566533 0.02862094 -0.019999437
-0.10509077 0.028896755 -0.019993525
-0.10441158 0.028971199 -0.01968297
-0.10383679 0.029247126 -0.019677054
-0.1030516 0.029120261 -0.019061122
-0.1023708 0.029194882 -0.018749828
-0.10179532 0.029471137 -0.018743904
-0.10121984 0.029747391 -0.018737981
-0.10053804 0.02982229 -0.018426435
-0.099855699 0.029897248 -0.018114641
-0.099386625 0.030375019 -0.018414583
-0.098917924 0.030852411 -0.018714288
-0.098342448 0.031128667 -0.018708365
-0.097659506 0.031204116 -0.018396806
-0.096760198 0.030877428 -0.017472511
-0.09607555 0.030952895 -0.017159967
-0.095281675 0.030826984 -0.016540069
-0.094704591 0.03110401 -0.016534131
-0.094127513 0.031381033 -0.016528191
-0.093659781 0.031859167 -0.01682936
-0.093082935 0.032136083 -0.016823424
-0.092506081 0.032412995 -0.016817486
-0.091819182 0.032489136 -0.016504431
-0.091242105 0.03276616 -0.016498491
-0.090554431 0.032842468 -0.016185185
-0.089866206 0.032918837 -0.015871629
-0.089288667 0.033196084 -0.015865685
-0.088488117 0.033071764 -0.015243767
-0.087910108 0.033349227 -0.015237818
-0.087332107 0.033626698 -0.015231869
-0.086754106 0.033904165 -0.015225919
-0.086176105 0.034181628 -0.01521997
-0.085485317 0.034258626 -0.014905654
-0.085133031 0.034936763 -0.015516195
-0.084328853 0.03481378 -0.01489375
-0.083637036 0.034891061 -0.014579179
-0.082944684 0.034968399 -0.014264355
-0.08225178 0.035045803 -0.013949282
-0.081443682 0.034922659 -0.01332434
-0.080749333 0.035000138 -0.013008513
-0.079939075 0.034876812 -0.012382069
-0.079243295 0.034954365 -0.012065483
-0.078546956 0.035031978 -0.011748645
-0.077617101 0.03470714 -0.010808572
-0.076802045 0.034583237 -0.010178602
-0.076337516 0.035063919 -0.010484736
-0.075990595 0.035745215 -0.011102246
-0.075409576 0.036024127 -0.011096267
-0.074828565 0.03630304 -0.011090286
-0.074011594 0.036180463 -0.010460797
-0.073074773 0.035856493 -0.0095176613
-0.072135702 0.035531737 -0.0085722506
-0.14600313 0.0029004274 -0.011677167
-0.14613463 0.0048848437 -0.014152399
-0.14599973 0.0062226867 -0.015689176
-0.14542195 0.006500043 -0.015683228
-0.14466587 0.0063543753 -0.015060916
-0.14372922 0.0057843216 -0.013819271
-0.14306004 0.0058501223 -0.013503767
-0.14248066 0.0061282543 -0.013497803
-0.14199175 0.0066183843 -0.013801388
-0.14159378 0.0073196716 -0.014413786
-0.1410151 0.0075974707 -0.014407829
-0.14052735 0.008086428 -0.014710688
-0.14004001 0.0085749952 -0.015013304
-0.13946176 0.0088525722 -0.015007352
-0.13888353 0.0091301501 -0.015001401
-0.13839704 0.0096181063 -0.01530378
-0.13772707 0.0096853049 -0.014989497
-0.13714883 0.0099628819 -0.014983546
-0.1364781 0.010030244 -0.01466901
-0.13589965 0.010307933 -0.014663056
-0.13550702 0.011005439 -0.015274035
-0.13520792 0.011911048 -0.016191648
-0.13463061 0.012188183 -0.016185705
-0.1340533 0.012465318 -0.016179765
-0.13328874 0.012324522 -0.015558344
-0.13261703 0.012392772 -0.015244288
-0.13213322 0.012879235 -0.01554645
-0.13183825 0.013782245 -0.016463373
-0.13126117 0.014059269 -0.016457433
-0.13068408 0.014336294 -0.016451495
-0.12991716 0.014197044 -0.015830539
-0.12943479 0.0146824 -0.016132226
-0.12885749 0.014959536 -0.016126286
-0.12828018 0.01523667 -0.016120343
-0.12760699 0.015306028 -0.015806761
-0.12702945 0.015583273 -0.015800817
-0.12693284 0.016896656 -0.017330648
-0.12645264 0.017379975 -0.017631141
-0.12616527 0.018275116 -0.018543033
-0.12558979 0.01855137 -0.018537112
-0.12511088 0.019033266 -0.018836649
-0.12453563 0.019309413 -0.018830726
-0.12396038 0.019585555 -0.018824806
-0.12357941 0.020271836 -0.019429093
-0.12300461 0.020547763 -0.019423177
-0.12252729 0.021028291 -0.019722005
-0.12195273 0.021304108 -0.019716093
-0.12147601 0.021784149 -0.020014688
-0.12080359 0.021855744 -0.019704266
-0.12022903 0.022131559 -0.019698352
-0.11965446 0.022407377 -0.019692438
-0.1190799 0.022683196 -0.019686524
-0.11850534 0.022959011 -0.01968061
-0.11793076 0.023234829 -0.019674696
-0.11705738 0.022899304 -0.018753756
-0.11648213 0.02317545 -0.018747834
-0.11590688 0.023451593 -0.018741915
-0.11523118 0.023523964 -0.018430492
-0.11455494 0.023596391 -0.018118825
-0.11397924 0.023872757 -0.0181129
-0.11340353 0.02414912 -0.018106973
-0.11282782 0.024425486 -0.018101048
-0.11225212 0.02470185 -0.018095123
-0.11198188 0.02558757 -0.01900574
-0.11150873 0.026066292 -0.019304853
-0.11103597 0.026544636 -0.019603729
-0.11046141 0.026820451 -0.019597817
-0.10947639 0.026286516 -0.018371262
-0.10879788 0.026360041 -0.018059568
-0.10832544 0.026839025 -0.018359415
-0.10795671 0.02751982 -0.018964309
-0.10748518 0.027997779 -0.019263441
-0.10701401 0.028475355 -0.019562334
-0.10643945 0.028751172 -0.01955642
-0.10565663 0.028623967 -0.018940635
-0.10518601 0.029101484 -0.019239774
-0.1046112 0.02937741 -0.01923386
-0.10403641 0.029653337 -0.019227944
-0.10346162 0.029929264 -0.019222027
-0.10278152 0.030004147 -0.018911043
-0.1022065 0.030280182 -0.018905126
-0.1014197 0.030154087 -0.018288337
-0.10063165 0.030027794 -0.017670566
-0.099949077 0.030102864 -0.01735835
-0.09947978 0.030580742 -0.01765871
-0.099010855 0.031058243 -0.017958833
-0.098435149 0.031334609 -0.01795291
-0.097859442 0.031610973 -0.017946983
-0.09706825 0.031485785 -0.017328696
-0.096275799 0.031360399 -0.016709426
-0.095482096 0.031234814 -0.016089171
-0.094905004 0.031511839 -0.016083231
-0.094327927 0.031788863 -0.016077291
-0.093750849 0.032065887 -0.016071351
-0.093283273 0.032543749 -0.016372705
-0.09270642 0.032820664 -0.016366769
-0.092129566 0.033097576 -0.016360831
-0.091442518 0.03317399 -0.016047593
-0.090754919 0.033250462 -0.015734106
-0.090066783 0.033326991 -0.015420371
-0.089489244 0.033604242 -0.015414427
-0.088800319 0.033680942 -0.015100439
-0.088110849 0.033757709 -0.014786201
-0.087420829 0.033834539 -0.014471712
-0.08695484 0.034312643 -0.014774301
-0.086376838 0.03459011 -0.014768353
-0.085686125 0.034667272 -0.014453856
-0.085107893 0.034944847 -0.014447904
-0.084416404 0.035022177 -0.014133154
-0.083837934 0.035299867 -0.014127201
-0.083145663 0.035377368 -0.013812197
-0.082338609 0.035254542 -0.013187397
-0.0816449 0.035332117 -0.01287164
-0.08083567 0.035209112 -0.012245337
-0.079909682 0.034884881 -0.01130699
-0.079213336 0.034962494 -0.01098972
-0.078516424 0.035040177 -0.010672198
-0.077352226 0.034311619 -0.009104724
-0.076770052 0.03459109 -0.0090987319
-0.076187864 0.034870565 -0.0090927398
-0.075840645 0.035552833 -0.0097121112
-0.075376503 0.036033127 -0.010018432
-0.074441329 0.035708979 -0.0090747634
-0.073859148 0.035988454 -0.0090687713
-0.073039763 0.035865374 -0.0084363911
-0.14531118 0.0011639452 -0.0080976095
-0.14633568 0.0052939765 -0.013700061
-0.14620037 0.0066310042 -0.015237737
-0.14544491 0.0064854412 -0.01461507
-0.14486669 0.0067630187 -0.014609119
-0.14428845 0.0070405961 -0.014603168
-0.1433512 0.0064716386 -0.01336079
-0.14331153 0.0080177849 -0.015208003
-0.14246364 0.0076621696 -0.014276572
-0.14188518 0.0079398574 -0.014270618
-0.14130671 0.0082175452 -0.014264664
-0.14081904 0.0087060602 -0.014567458
-0.14042267 0.0094045661 -0.015178269
-0.13984489 0.0096819224 -0.015172322
-0.13926712 0.0099592777 -0.015166375
-0.13859777 0.010026585 -0.014852163
-0.13801977 0.010304052 -0.014846213
-0.13734965 0.010371525 -0.014531748
-0.13667899 0.01043905 -0.014217032
-0.13647069 0.011555498 -0.015444671
-0.13598573 0.012041904 -0.015746512
-0.13540842 0.01231904 -0.01574057
-0.1348311 0.012596175 -0.015734628
-0.13406716 0.012455482 -0.015112854
-0.13348942 0.012732838 -0.015106907
-0.13309917 0.013427581 -0.015716802
-0.13270956 0.014121217 -0.016325725
-0.13222668 0.014606023 -0.016626857
-0.13174418 0.015090443 -0.016927749
-0.13116777 0.015367139 -0.016921818
-0.13059138 0.015643833 -0.016915884
-0.12992018 0.015713241 -0.016603118
-0.12934355 0.015990045 -0.016597183
-0.1288622 0.016473917 -0.016898086
-0.12828581 0.01675061 -0.016892152
-0.12790065 0.017440503 -0.017499177
-0.12780258 0.01874656 -0.019021397
-0.1272278 0.019022487 -0.01901548
-0.12684453 0.019708667 -0.019619137
-0.12636606 0.020189149 -0.019917652
-0.12569584 0.020260084 -0.019607313
-0.12502509 0.020331074 -0.01929673
-0.12435382 0.02040212 -0.018985899
-0.12387597 0.020882709 -0.019284902
-0.1233014 0.021158526 -0.019278988
-0.12282415 0.021638624 -0.019577757
-0.12224982 0.021914331 -0.019571844
-0.12167548 0.022190038 -0.019565932
-0.12100314 0.022261795 -0.019255333
-0.12033026 0.022333607 -0.018944485
-0.11965685 0.022405475 -0.018633392
-0.11918068 0.02288546 -0.018932654
-0.11870487 0.023365064 -0.019231679
-0.11793178 0.023233583 -0.018615637
-0.11735676 0.02350962 -0.018609717
-0.11698118 0.024192514 -0.019213935
-0.11620673 0.024061691 -0.018597882
-0.11553141 0.024134275 -0.018286526
-0.11475489 0.024003251 -0.017669
-0.11438091 0.024686566 -0.018274685
-0.11390664 0.025165837 -0.018574208
-0.11333161 0.025441872 -0.018568289
-0.1127566 0.025717907 -0.018562371
-0.11228315 0.026196579 -0.018861661
-0.11170836 0.026472505 -0.018855743
-0.11123552 0.026950687 -0.019154796
-0.11055877 0.027024359 -0.01884391
-0.10977891 0.026895732 -0.018227318
-0.10910077 0.026969466 -0.017915694
-0.10862841 0.027448021 -0.018215476
-0.10815642 0.027926195 -0.018515022
-0.1075814 0.028202232 -0.018509103
-0.10721356 0.028881406 -0.019113401
-0.10663899 0.029157225 -0.019107487
-0.10585633 0.02903034 -0.018491348
-0.10548986 0.029708859 -0.019095659
-0.10481083 0.029783625 -0.018784748
-0.10444533 0.030461278 -0.019388588
-0.10366124 0.030335478 -0.018772917
-0.10308645 0.030611405 -0.018767001
-0.10251166 0.030887332 -0.018761083
-0.10183118 0.030962592 -0.018449919
-0.10083167 0.030434813 -0.017220564
-0.10025574 0.030711288 -0.017214635
-0.099679805 0.030987762 -0.017208708
-0.099210799 0.031465102 -0.01750901
-0.098635092 0.031741466 -0.017503085
-0.098059386 0.032017831 -0.01749716
-0.09748368 0.032294199 -0.017491234
-0.096692182 0.032169551 -0.016872585
-0.09589944 0.032044709 -0.016252952
-0.095105425 0.031919669 -0.015632333
-0.09452834 0.032196693 -0.015626393
-0.093951263 0.032473721 -0.015620454
-0.093483604 0.032951415 -0.015921986
-0.092906751 0.03322833 -0.015916048
-0.092329904 0.033505246 -0.015910111
-0.091753051 0.033782162 -0.015904173
-0.091065854 0.033858843 -0.015590755
-0.09026736 0.033735149 -0.014969114
-0.089689821 0.034012392 -0.014963169
-0.089000978 0.03408926 -0.014649001
-0.088199876 0.033965603 -0.014025864
-0.087621644 0.034243178 -0.014019914
-0.087043412 0.034520756 -0.014013962
-0.086352691 0.034597918 -0.013699039
-0.085774221 0.034875605 -0.013693085
-0.085082725 0.034952942 -0.013377909
-0.084504031 0.035230741 -0.013371952
-0.084038831 0.035708673 -0.013675223
-0.08323282 0.03558616 -0.013050563
-0.082425505 0.035463449 -0.012424903
-0.081616908 0.03534054 -0.011798242
-0.080922082 0.035418246 -0.011481551
-0.079995818 0.035094138 -0.01054191
-0.079299226 0.03517187 -0.010224207
-0.078485847 0.035048384 -0.0095940214
-0.07732065 0.034319259 -0.0080231223
-0.075690337 0.03535999 -0.0083186245
-0.14644812 0.0054908302 -0.012938077
-0.14622396 0.0066165072 -0.014169225
-0.14573453 0.0071054655 -0.014471936
-0.1450675 0.0071716621 -0.014157321
-0.14448926 0.007449239 -0.01415137
-0.14382148 0.007515599 -0.013836502
-0.14351217 0.0084261028 -0.014756566
-0.14302422 0.0089139501 -0.015058802
-0.14244668 0.0091911955 -0.015052858
-0.14168853 0.0090477327 -0.014430291
-0.14129159 0.0097456863 -0.015040969
-0.14080472 0.010232815 -0.015342971
-0.14031821 0.010719554 -0.015644733
-0.13965011 0.010787086 -0.015331087
-0.13889 0.010644951 -0.014708991
-0.13831224 0.010922307 -0.014703044
-0.13791817 0.011618491 -0.015313261
-0.13743281 0.01210468 -0.015615035
-0.13685572 0.012381705 -0.015609096
-0.13627866 0.012658729 -0.015603155
-0.13570157 0.012935755 -0.015597216
-0.1350316 0.013004168 -0.01528355
-0.13445428 0.013281303 -0.015277608
-0.13387698 0.013558437 -0.015271666
