# .PCD v0.7 - Point Cloud Data file format
VERSION 0.7
FIELDS x y z
SIZE 4 4 4
TYPE F F F
COUNT 1 1 1
WIDTH 1250
HEIGHT 1
VIEWPOINT 0 0 0 1 0 0 0
POINTS 1250
DATA ascii
-0.080778696 0.0083347671 -0.01338527
-0.080188937 0.008617877 -0.0133792
-0.079599172 0.0089009879 -0.013373129
-0.079009414 0.0091840979 -0.013367059
-0.078301653 0.0092524877 -0.013045593
-0.077829897 0.0097503196 -0.013354919
-0.077358529 0.010247746 -0.013663993
-0.076769009 0.010530741 -0.013657926
-0.07594166 0.01038539 -0.013021302
-0.075232357 0.010454297 -0.012699564
-0.074522473 0.010523259 -0.012377565
-0.073812015 0.010592278 -0.012055302
-0.07273943 0.010016812 -0.010781892
-0.072147749 0.010300847 -0.010775802
-0.072642379 0.012511708 -0.013615451
-0.06719137 0.013498228 -0.011671951
-0.067214243 0.014846308 -0.013245655
-0.066747181 0.015341662 -0.013554773
-0.066157669 0.015624657 -0.013548706
-0.065444961 0.015695639 -0.013227445
-0.064855203 0.01597875 -0.013221375
-0.064265445 0.016261861 -0.013215304
-0.06379959 0.016756639 -0.013524435
-0.063334115 0.017251015 -0.013833315
-0.062993102 0.017955914 -0.014456382
-0.062528528 0.0184492 -0.014764507
-0.061939966 0.018731736 -0.01475845
-0.061101902 0.018593287 -0.014123756
-0.060262479 0.018454611 -0.013488028
-0.059421688 0.01831571 -0.012851267
-0.058831688 0.018598936 -0.012845195
-0.057862572 0.01824872 -0.011891139
-0.056636717 0.017473686 -0.010299915
-0.12105928 -0.013755145 -0.0095475521
-0.12077031 -0.012796281 -0.010495409
-0.12088575 -0.010945831 -0.012706172
-0.12039648 -0.010439578 -0.013015762
-0.11980648 -0.010156351 -0.01300969
-0.1190135 -0.010318672 -0.01237202
-0.11801512 -0.010928027 -0.011099646
-0.11660194 -0.012437573 -0.0085485075
-0.11412434 -0.011522721 -0.0082047638
-0.11436283 -0.0094474778 -0.010745886
-0.11408252 -0.0084954454 -0.011690732
-0.11359541 -0.0079895705 -0.012001114
-0.11321264 -0.007262398 -0.012627196
-0.11283049 -0.0065364093 -0.013252257
-0.11234488 -0.0060323598 -0.013561374
-0.11196391 -0.0053082551 -0.014184915
-0.11137487 -0.0050254897 -0.014178852
-0.11099499 -0.0043027909 -0.014801386
-0.11040643 -0.0040202546 -0.014795328
-0.10981786 -0.003737719 -0.014789269
-0.10933448 -0.0032358281 -0.015097135
-0.10874615 -0.0029534071 -0.015091079
-0.10815783 -0.0026709859 -0.015085024
-0.1075695 -0.0023885649 -0.015078968
-0.10708722 -0.0018874247 -0.015386591
-0.10660532 -0.0013866911 -0.015693964
-0.10612382 -0.00088636344 -0.016001089
-0.10521621 -0.0012588802 -0.015054747
-0.10409162 -0.0020704251 -0.013476425
-0.10317858 -0.0024456014 -0.012523917
-0.10237174 -0.0026017048 -0.011885593
-0.10178101 -0.0023181329 -0.011879512
-0.10119029 -0.002034561 -0.011873432
-0.10059957 -0.0017509891 -0.011867352
-0.10022738 -0.0010288965 -0.012493541
-0.099637143 -0.00074555556 -0.012487466
-0.099156514 -0.00024345258 -0.012797146
-0.098676279 0.00025824187 -0.013106572
-0.098086521 0.00054135232 -0.013100502
-0.097496755 0.0008244628 -0.013094432
-0.096907005 0.0011075733 -0.013088361
-0.096317247 0.0013906838 -0.013082292
-0.095616527 0.0014559015 -0.01276071
-0.095026523 0.0017391272 -0.012754637
-0.094436526 0.002022353 -0.012748564
-0.09384653 0.0023055784 -0.012742491
-0.093144514 0.0023711952 -0.01242064
-0.092441924 0.0024368656 -0.012098527
-0.091851451 0.002720322 -0.012092449
-0.091148049 0.0027861611 -0.011770071
-0.090557329 0.003069733 -0.011763991
-0.08996661 0.0033533052 -0.011757909
-0.089148328 0.0032018041 -0.01111844
-0.088214368 0.0028320134 -0.010160321
-0.087622441 0.0031161641 -0.01015423
-0.087030515 0.0034003151 -0.010148136
-0.086553663 0.0039021603 -0.010459655
-0.086077191 0.0044035963 -0.010770919
-0.085831568 0.0053383084 -0.011715349
-0.085931391 0.0069180136 -0.013603366
-0.085342109 0.0072008939 -0.0135973
-0.084752828 0.0074837743 -0.013591236
-0.083932303 0.0073360032 -0.012954818
-0.083226547 0.0074036405 -0.012633183
-0.082636543 0.0076868664 -0.012627111
-0.082046546 0.0079700919 -0.012621039
-0.08157327 0.0084684445 -0.012930537
-0.080983512 0.0087515553 -0.012924466
-0.080744788 0.0096783098 -0.013863586
-0.080155753 0.0099610751 -0.013857523
-0.079449318 0.010029697 -0.013536648
-0.078742303 0.010098374 -0.013215512
-0.078152783 0.01038137 -0.013209445
-0.077681482 0.010878338 -0.013518453
-0.077210553 0.011374902 -0.013827209
-0.07662151 0.011657667 -0.013821146
-0.075556554 0.011085575 -0.012554239
-0.074966557 0.0113688 -0.012548166
-0.074376561 0.011652026 -0.012542093
-0.074026152 0.012362337 -0.013166971
-0.073436633 0.012645332 -0.013160903
-0.071761549 0.011003031 -0.010307403
-0.066758044 0.011489712 -0.0080354791
-0.067151017 0.013489003 -0.010576118
-0.067173995 0.014838198 -0.012153334
-0.066951931 0.015758282 -0.013094158
-0.066362403 0.016041277 -0.01308809
-0.065772891 0.016324272 -0.013082023
-0.065183364 0.016607268 -0.013075954
-0.064593852 0.016890263 -0.013069887
-0.064004324 0.017173259 -0.013063819
-0.063786395 0.018089375 -0.014002387
-0.063321494 0.018582607 -0.014310696
-0.062732928 0.018865142 -0.014304639
-0.062144369 0.019147679 -0.014298582
-0.061306473 0.019009568 -0.013663514
-0.060467217 0.018871229 -0.013027413
-0.059752192 0.018943533 -0.012705939
-0.05903659 0.019015893 -0.012384204
-0.058194119 0.018877337 -0.011746024
-0.05735027 0.018738555 -0.011106805
-0.12067246 -0.013051812 -0.0090783881
-0.12038395 -0.01209381 -0.01002682
-0.1205005 -0.010245362 -0.012238918
-0.11980905 -0.010184831 -0.011916731
-0.11901544 -0.010347308 -0.01127765
-0.11822053 -0.010510049 -0.010637526
-0.11680801 -0.012018225 -0.0080848755
-0.11453839 -0.010654643 -0.0083796876
-0.11415328 -0.0099223191 -0.0090112891
-0.11408043 -0.0085226158 -0.010594914
-0.11380057 -0.0075721024 -0.01153956
-0.11341763 -0.0068452703 -0.012166017
-0.11303531 -0.0061196205 -0.012791454
-0.11275752 -0.0051747398 -0.013730736
-0.11216848 -0.0048919744 -0.013724674
-0.11157945 -0.004609209 -0.01371861
-0.11119939 -0.003886848 -0.014341517
-0.11061084 -0.0036043122 -0.01433546
-0.11012711 -0.0031024753 -0.014643509
-0.10953879 -0.0028200543 -0.014637453
-0.10895047 -0.0025376333 -0.014631398
-0.10836215 -0.002255212 -0.014625343
-0.10777383 -0.0019727908 -0.014619287
-0.10729146 -0.0014718195 -0.014927097
-0.10680948 -0.00097125437 -0.015234656
-0.1063279 -0.00047109506 -0.015541965
-0.10531377 -0.00106149 -0.014280939
-0.10408141 -0.0020922998 -0.012384736
-0.10327563 -0.0022480513 -0.011746557
-0.10257689 -0.0021842364 -0.011424038
-0.10166012 -0.0025603177 -0.010467076
-0.10139544 -0.0016170929 -0.011411877
-0.10080472 -0.001333521 -0.011405798
-0.10065038 -0.00017430075 -0.012663979
-0.10006061 0.00010880973 -0.01265791
-0.099470854 0.00039192018 -0.012651839
-0.099209599 0.0013288638 -0.013591291
-0.098401166 0.0011761476 -0.012955132
-0.097811654 0.0014591429 -0.012949064
-0.097222127 0.0017421383 -0.012942996
-0.09674307 0.0022426178 -0.013252112
-0.096153796 0.0025254982 -0.013246047
-0.095453575 0.0025911243 -0.012924793
-0.094864063 0.0028741194 -0.012918725
-0.094274536 0.0031571151 -0.012912658
-0.093685023 0.0034401102 -0.01290659
-0.093095496 0.0037231056 -0.012900522
-0.092169024 0.0033550055 -0.011947311
-0.091578782 0.0036383464 -0.011941236
-0.090762481 0.0034872012 -0.011302436
-0.090171762 0.0037707731 -0.011296356
-0.08958105 0.0040543452 -0.011290275
-0.088990323 0.0043379171 -0.011284196
-0.088285476 0.0044044424 -0.010961357
-0.087580048 0.0044710222 -0.010638253
-0.086874045 0.0045376564 -0.010314887
-0.086282603 0.0048215752 -0.010308799
-0.08592163 0.0055391924 -0.010937026
-0.086021274 0.0071190493 -0.012827709
-0.08566168 0.0078324666 -0.013451847
-0.085072637 0.0081152329 -0.013445783
-0.084368199 0.0081831049 -0.013124742
-0.083778925 0.0084659839 -0.013118676
-0.08295761 0.0083190128 -0.012481874
-0.082251452 0.0083870506 -0.012160048
-0.081778094 0.0088852337 -0.012469733
-0.081305116 0.0093830125 -0.012779167
-0.080949366 0.01009459 -0.013403344
-0.080360323 0.010377356 -0.013397282
-0.079771288 0.010660121 -0.013391218
-0.079182245 0.010942887 -0.013385155
-0.078593202 0.011225652 -0.013379093
-0.078004166 0.011508417 -0.01337303
-0.077533297 0.012004524 -0.013681721
-0.077062815 0.012500227 -0.01399016
-0.076355696 0.012569824 -0.0136696
-0.075529017 0.012426308 -0.013033763
-0.074939735 0.012709189 -0.013027698
-0.074946821 0.014055042 -0.014594183
-0.07459709 0.014761101 -0.01521537
-0.06733378 0.012553125 -0.0085293893
-0.066741124 0.012837624 -0.00852329
-0.066764981 0.014190901 -0.01010791
-0.06678874 0.015538667 -0.01168608
-0.066567138 0.016457895 -0.012627474
-0.065977626 0.01674089 -0.012621406
-0.065388106 0.017023886 -0.012615338
-0.064798586 0.017306881 -0.012609271
-0.064332701 0.017801035 -0.012918523
-0.063990876 0.018505486 -0.013542333
-0.063525893 0.01899855 -0.01385083
-0.062937334 0.019281086 -0.013844771
-0.062224481 0.019353438 -0.013524151
-0.061261471 0.019004853 -0.012572864
-0.060671952 0.019287849 -0.012566797
-0.060082432 0.019570844 -0.012560729
-0.059492912 0.01985384 -0.01255466
-0.058777496 0.019926542 -0.012232995
-0.05768216 0.019367227 -0.010961951
-0.12028563 -0.012348479 -0.0086092241
-0.11969298 -0.012063979 -0.0086031249
-0.11971027 -0.01043654 -0.010504915
-0.11911907 -0.010152738 -0.010498831
-0.1166268 -0.010865482 -0.0082537225
-0.1160339 -0.010580866 -0.0082476195
-0.11435911 -0.0095034856 -0.0085482243
-0.11418213 -0.0083271423 -0.0098151797
-0.11400572 -0.0071546347 -0.011078005
-0.11351885 -0.0066495123 -0.01138851
-0.11334388 -0.0054821167 -0.012646209
-0.11296209 -0.0047584591 -0.013270495
-0.11247703 -0.004255746 -0.013579225
-0.11199237 -0.0037534409 -0.013887708
-0.1114038 -0.0034709051 -0.013881649
-0.11091976 -0.0029691225 -0.014189883
-0.11033144 -0.0026867012 -0.014183828
-0.10995287 -0.001966778 -0.014805599
-0.10925995 -0.0019031338 -0.01448576
-0.10867187 -0.0016208274 -0.014479707
-0.10808378 -0.0013385208 -0.014473653
-0.10760148 -0.0008380097 -0.014781398
-0.10711958 -0.00033790438 -0.015088891
-0.10663805 0.00016179569 -0.015396136
-0.10551818 -0.00064554741 -0.013821071
-0.10407118 -0.0021142098 -0.011291268
-0.10315662 -0.0024900518 -0.010334534
-0.10245697 -0.0024262576 -0.010011043
-0.10186552 -0.0021423385 -0.010004956
-0.10138301 -0.0016386423 -0.010316279
-0.10100988 -0.0009160529 -0.010944244
-0.10085519 0.00024248804 -0.012203177
-0.10037447 0.00074378087 -0.012512719
-0.099894121 0.0012446662 -0.01282201
-0.099523418 0.0019625656 -0.013445898
-0.098825134 0.0020279097 -0.013124987
-0.098126285 0.002093307 -0.012803814
-0.097537003 0.0023761874 -0.012797749
-0.097168215 0.0030931677 -0.013421657
-0.09657941 0.0033758183 -0.013415597
-0.095769167 0.0032248283 -0.012779553
-0.095179886 0.0035077087 -0.012773488
-0.09447927 0.0035737343 -0.012452042
-0.094112813 0.0042900327 -0.013076485
-0.093412049 0.0043563494 -0.012755292
-0.092710719 0.0044227205 -0.012433838
-0.09189634 0.0042723981 -0.011796219
-0.091193527 0.0043388158 -0.011473982
-0.090603292 0.0046221567 -0.011467907
-0.089899674 0.0046887435 -0.011145405
-0.089422815 0.0051888386 -0.011455758
-0.088832572 0.0054721795 -0.011449682
-0.087899752 0.0051057683 -0.010493531
-0.08707945 0.0049556354 -0.0098527679
-0.086488008 0.0052395542 -0.0098466799
-0.086126871 0.0059568305 -0.010475283
-0.086111218 0.0073202495 -0.012051421
-0.085636489 0.0078186644 -0.012361025
-0.085277215 0.0085315136 -0.012985542
-0.084688172 0.008814279 -0.01297948
-0.084099136 0.0090970444 -0.012973417
-0.083625793 0.0095941294 -0.013282269
-0.083036996 0.0098767802 -0.013276209
-0.082215741 0.0097310757 -0.012640052
-0.081742972 0.010228106 -0.012949165
-0.08127059 0.010724733 -0.013258028
-0.080798589 0.011220955 -0.01356664
-0.08021003 0.011503492 -0.013560581
-0.079738647 0.011999197 -0.013868945
-0.079150327 0.012281618 -0.01386289
-0.078562006 0.012564039 -0.013856835
-0.077973679 0.012846461 -0.013850778
-0.077503406 0.01334142 -0.0141589
-0.076797038 0.013411302 -0.013838667
-0.076090097 0.013481242 -0.013518176
-0.07562039 0.013976145 -0.013826557
-0.075388774 0.014894292 -0.014762295
-0.075750045 0.016863193 -0.017256558
-0.07516434 0.01714436 -0.017250529
-0.068724908 0.01240296 -0.0080785258
-0.068132259 0.012687459 -0.0080724256
-0.067539603 0.012971958 -0.0080663264
-0.066946954 0.013256458 -0.0080602253
-0.066601038 0.01396865 -0.0086915726
-0.066378944 0.0148928 -0.0096397037
-0.066280492 0.016027 -0.0109023
-0.066059425 0.016946005 -0.011845035
-0.06559284 0.017440505 -0.012154723
-0.065003321 0.017723501 -0.012148655
-0.064413801 0.018006496 -0.012142587
-0.064071767 0.018711068 -0.012767281
-0.063606568 0.019204248 -0.013076218
-0.063017763 0.019486899 -0.013070157
-0.062304653 0.019559363 -0.012749093
-0.061466206 0.019421473 -0.012112249
-0.06087669 0.019704469 -0.01210618
-0.06028717 0.019987462 -0.012100113
-0.059948493 0.020690424 -0.012724841
-0.059233844 0.020763407 -0.012403506
-0.057887312 0.019784695 -0.010500396
-0.1198988 -0.011645147 -0.0081400601
-0.11930615 -0.011360646 -0.0081339609
-0.1187135 -0.011076147 -0.0081278598
-0.11714096 -0.0097755436 -0.0087469611
-0.11654879 -0.0094912769 -0.0087408666
-0.11575024 -0.0096536512 -0.0080973608
-0.11515758 -0.0093691517 -0.0080912607
-0.11477228 -0.008638476 -0.0087225819
-0.11438762 -0.0079089934 -0.0093528721
-0.1143144 -0.0065156701 -0.010933222
-0.11372393 -0.0062322142 -0.010927144
-0.11354862 -0.0050654975 -0.012185594
-0.11327032 -0.0041222847 -0.013125231
-0.11268152 -0.0038396341 -0.013119171
-0.11230073 -0.0031181907 -0.013742313
-0.11192056 -0.0023979174 -0.014364443
-0.1114369 -0.00189718 -0.014672106
-0.11105789 -0.0011787708 -0.015292726
-0.11057517 -0.00067913492 -0.01559964
-0.10967408 -0.0010509469 -0.014653961
-0.10887611 -0.001205222 -0.014020212
-0.10828802 -0.00092291547 -0.014014159
-0.10780564 -0.00042257295 -0.014322089
-0.10721779 -0.00014038084 -0.014316038
-0.10631115 -0.0005121404 -0.01336726
-0.10529536 -0.0011035624 -0.012100645
-0.10427625 -0.0016969118 -0.010829901
-0.10346997 -0.0018524682 -0.010189936
-0.10277074 -0.00178844 -0.009866518
-0.10207093 -0.0017243596 -0.0095428368
-0.10158833 -0.0012208336 -0.0098543484
-0.10121503 -0.00049858476 -0.010482689
-0.10106001 0.00065927685 -0.011742372
-0.1005792 0.0011604001 -0.012052103
-0.099989682 0.0014433955 -0.012046034
-0.09961874 0.0021614251 -0.012670808
-0.099029705 0.0024441904 -0.012664746
-0.098440669 0.0027269558 -0.012658682
-0.097851627 0.0030097212 -0.01265262
-0.097372696 0.0035092796 -0.012961602
-0.097004332 0.0042247581 -0.013584871
-0.096195102 0.0040745805 -0.012949482
-0.095495462 0.0041407826 -0.012628368
-0.095017493 0.0046398817 -0.01293736
-0.094539911 0.0051385751 -0.013246102
-0.093951344 0.0054211109 -0.013240045
-0.093251094 0.0054878332 -0.01291918
-0.092325933 0.0051223352 -0.011967154
-0.091623873 0.0051890439 -0.011645249
-0.091034122 0.0054721548 -0.01163918
-0.090444356 0.0057552652 -0.011633109
-0.089741245 0.005822259 -0.011310937
-0.089151248 0.0061054849 -0.011304865
-0.088561252 0.0063887103 -0.011298792
-0.087628469 0.0060235686 -0.010342846
-0.086808287 0.0058742454 -0.0097022215
-0.08644703 0.0065907123 -0.010330686
-0.085856311 0.0068742847 -0.010324606
-0.085726291 0.0080201495 -0.011584548
-0.085481778 0.0089477943 -0.0125253
-0.084892742 0.0092305597 -0.012519238
-0.084419079 0.0097275916 -0.012828275
-0.083830275 0.010010242 -0.012822215
-0.083357237 0.010506755 -0.013131004
-0.082768679 0.01078929 -0.013124945
-0.082296267 0.011285286 -0.013433486
-0.08170794 0.011567707 -0.01342743
-0.081352577 0.01227607 -0.014049816
-0.080764733 0.012558263 -0.014043765
-0.08017689 0.012840455 -0.014037715
-0.079706095 0.013335017 -0.014345511
-0.079118483 0.013617094 -0.014339462
-0.078530885 0.013899172 -0.014333414
-0.07806094 0.014393103 -0.014640965
-0.077237658 0.014251416 -0.014007462
-0.076649807 0.014533607 -0.014001411
-0.076061964 0.0148158 -0.013995362
-0.07618501 0.016364833 -0.015868681
-0.076071553 0.017487038 -0.017110506
-0.075604327 0.017977728 -0.01741582
-0.066337898 0.014884706 -0.0085413158
-0.065992907 0.015594697 -0.0091714961
-0.065771826 0.01651573 -0.010117883
-0.065304607 0.01701121 -0.010428779
-0.065084726 0.017929014 -0.01137209
-0.064618535 0.018423116 -0.01168197
-0.064152732 0.018916816 -0.0119916
-0.063687302 0.019410113 -0.012300977
-0.063098259 0.019692879 -0.012294915
-0.062509224 0.019975644 -0.012288851
-0.061546173 0.019627677 -0.011335669
-0.061081424 0.020121088 -0.011645565
-0.060491905 0.020404084 -0.011639497
-0.060153063 0.021106705 -0.0122646
-0.059438497 0.021179857 -0.011943077
-0.058345128 0.020623039 -0.010672595
-0.05724819 0.020064406 -0.0093979686
-0.11793878 -0.0096413195 -0.0082903709
-0.11765385 -0.0086882738 -0.0092389937
-0.11706242 -0.0084043536 -0.0092329066
-0.11626526 -0.0085656419 -0.0085905893
-0.11557011 -0.008504251 -0.0082659908
-0.11508141 -0.0079973405 -0.0085784057
-0.11469664 -0.0072686789 -0.0092085563
-0.11451947 -0.0060983724 -0.010471855
-0.1141361 -0.0053730356 -0.011098927
-0.11375336 -0.0046488782 -0.011724978
-0.11347481 -0.003706173 -0.012665177
-0.11309338 -0.0029848381 -0.013288687
-0.11302319 -0.0016093864 -0.014852106
-0.1126432 -0.00089179166 -0.01547208
-0.11205655 -0.00061017054 -0.015466041
-0.11146989 -0.00032854942 -0.015460003
-0.11088324 -4.6928286e-05 -0.015453964
-0.1101921 1.7364277e-05 -0.015135035
-0.10929054 -0.00035360074 -0.014188791
-0.10849226 -0.00050731015 -0.013554664
-0.10790417 -0.00022500362 -0.013548612
-0.10731608 5.7302939e-05 -0.013542559
-0.10651555 -9.6197655e-05 -0.012907392
-0.10560694 -0.00046835668 -0.01195574
-0.10501766 -0.00018547637 -0.011949674
-0.10378306 -0.0012154042 -0.010045455
-0.10308424 -0.0011511425 -0.0097221099
-0.10249329 -0.00086745503 -0.0097160274
-0.10190233 -0.00058376748 -0.0097099449
-0.10142019 -8.1116676e-05 -0.010021134
-0.10137346 0.0012940241 -0.011597554
-0.10110999 0.002229488 -0.01253791
-0.10030343 0.0020775662 -0.011901152
-0.099823311 0.0025777058 -0.012210567
-0.099234276 0.0028604711 -0.012204503
-0.098754786 0.0033600901 -0.012513668
-0.098275691 0.0038593032 -0.012822582
-0.097796977 0.0043581109 -0.013131246
-0.097318657 0.0048565143 -0.013439658
-0.096620329 0.0049229534 -0.013119134
-0.096032016 0.0052053747 -0.013113079
-0.095332876 0.0052719824 -0.012792293
-0.094744317 0.0055545177 -0.012786235
-0.094155751 0.005837054 -0.012780177
-0.093567193 0.0061195893 -0.012774119
-0.093090393 0.0066174804 -0.013082801
-0.091941155 0.0058219493 -0.011500471
-0.091351628 0.0061049447 -0.011494403
-0.090762116 0.0063879406 -0.011488335
-0.090398677 0.0071019521 -0.012113562
-0.0896964 0.0071694115 -0.011791978
-0.088993557 0.0072369259 -0.011470132
-0.088517845 0.0077351723 -0.011779848
-0.087471835 0.0071564587 -0.010509099
-0.086766936 0.0072240783 -0.010186207
-0.086176455 0.0075075347 -0.010180129
-0.085585974 0.0077909906 -0.010174051
-0.085341349 0.0087200478 -0.011117673
-0.085212372 0.009861053 -0.01237428
-0.084623568 0.010143703 -0.01236822
-0.08415021 0.010640161 -0.012677193
-0.083677232 0.011136218 -0.012985915
-0.083088905 0.011418639 -0.012979859
-0.082732432 0.012127124 -0.013602609
-0.082260594 0.012621974 -0.013910579
-0.081789151 0.013116423 -0.014218302
-0.081434302 0.013822386 -0.01483904
-0.080847412 0.01410412 -0.014833
-0.080260515 0.014385856 -0.014826958
-0.079439677 0.014244277 -0.01419412
-0.079086721 0.014949325 -0.014814877
-0.078499831 0.015231061 -0.014808836
-0.077795304 0.015301568 -0.014489517
-0.076972127 0.015160673 -0.013856147
-0.076384522 0.015442751 -0.013850099
-0.076270513 0.016568718 -0.015097706
-0.075920552 0.017271033 -0.015716979
-0.075571164 0.017972212 -0.016335253
-0.074510545 0.017413583 -0.015079591
-0.066198312 0.016012676 -0.0087093776
-0.065976985 0.016933197 -0.0096563278
-0.065386258 0.017216768 -0.0096502481
-0.064919196 0.017711965 -0.009961335
-0.064699784 0.018628914 -0.010905217
-0.064233758 0.019122731 -0.011215287
-0.063891873 0.019826394 -0.011840736
-0.063178822 0.019899026 -0.01151904
-0.062465198 0.019971715 -0.011197085
-0.061750993 0.020044466 -0.010874866
-0.06141099 0.020747667 -0.011500845
-0.060821708 0.021030547 -0.01149478
-0.060357634 0.021522986 -0.011804358
-0.059643149 0.021596307 -0.011482649
-0.058928084 0.02166969 -0.011160678
-0.057833441 0.021113442 -0.009888404
-0.11824661 -0.0089997752 -0.0081463708
-0.11796143 -0.008047902 -0.0090947831
-0.11767694 -0.0070983563 -0.010040876
-0.11667638 -0.0077024563 -0.0087646991
-0.11598197 -0.0076407637 -0.0084404368
-0.11539027 -0.0073567289 -0.0084343459
-0.1152119 -0.0061858022 -0.0096994219
-0.11493101 -0.0052393028 -0.010644007
-0.11444435 -0.0047355755 -0.01095431
-0.11416484 -0.0037923823 -0.011895832
-0.11388601 -0.0028514853 -0.01283506
-0.11371109 -0.0016945015 -0.014085828
-0.11343361 -0.00075881655 -0.015019738
-0.11295032 -0.00025975474 -0.015326513
-0.11236389 2.1752458e-05 -0.015320477
-0.11177748 0.00030325967 -0.015314442
-0.11108698 0.0003676679 -0.014995584
-0.11050032 0.000649289 -0.014989547
-0.1095995 0.00027924241 -0.014043509
-0.1088018 0.00012610851 -0.013409522
-0.10810842 0.00019060167 -0.013089116
-0.10730851 3.7209302e-05 -0.012453583
-0.10661369 0.00010174493 -0.012132398
-0.1058116 -5.1906718e-05 -0.011495311
-0.10522232 0.00023097359 -0.011489245
-0.10463304 0.00051385391 -0.01148318
-0.1033975 -0.00051436428 -0.0095778201
-0.10269853 -0.00044981673 -0.0092542851
-0.10210756 -0.00016612923 -0.0092482027
-0.10195103 0.00099166238 -0.010510409
-0.10201146 0.0025800313 -0.012399062
-0.10153124 0.0030793583 -0.012707897
-0.10072568 0.0029282502 -0.012071795
-0.10024577 0.0034276384 -0.012380888
-0.099657208 0.0037101742 -0.01237483
-0.099177949 0.004209043 -0.012683675
-0.098699063 0.0047075069 -0.012992268
-0.098439485 0.0056365477 -0.013928642
-0.097852118 0.0059185107 -0.013922597
-0.096934818 0.005554426 -0.01297411
-0.096346729 0.0058367327 -0.012968057
-0.095648013 0.0059035695 -0.012647342
-0.094837673 0.0057547553 -0.012011192
-0.094248861 0.0060374062 -0.012005131
-0.093883045 0.0067508332 -0.012629176
-0.093294717 0.007033254 -0.01262312
-0.092594475 0.0071006035 -0.012302135
-0.091893658 0.0071680085 -0.011980889
-0.091192283 0.0072354674 -0.011659382
-0.090828791 0.0079482114 -0.012283961
-0.090014204 0.0078009982 -0.011647257
-0.089311779 0.0078687416 -0.011325483
-0.088949658 0.0085812602 -0.011950587
-0.088474542 0.0090783536 -0.01225973
-0.087772056 0.0091465618 -0.011938467
-0.086381525 0.0079248324 -0.0097187627
-0.085791044 0.0082082888 -0.0097126858
-0.08566118 0.009351518 -0.01097311
-0.085416853 0.010277163 -0.011914225
-0.084828056 0.010559814 -0.011908165
-0.084354617 0.011056105 -0.012217325
-0.083881557 0.011551991 -0.012526234
-0.083524428 0.012260368 -0.01314935
-0.083052278 0.012755164 -0.013457505
-0.082580514 0.013249559 -0.013765411
-0.082340822 0.014167103 -0.01469971
-0.081754163 0.014448724 -0.014693671
-0.081283681 0.014941635 -0.015000579
-0.080697268 0.015223142 -0.014994543
-0.079994194 0.015293587 -0.014675556
-0.07964123 0.015996933 -0.015295172
-0.078820884 0.01585683 -0.01466348
-0.078234226 0.016138451 -0.014657442
-0.077176198 0.015575941 -0.013397025
-0.076588601 0.015858019 -0.013390977
-0.076000988 0.016140096 -0.013384929
-0.075887598 0.017264934 -0.014633289
-0.07553795 0.017966686 -0.015252938
-0.074714288 0.017828176 -0.014621212
-0.072330594 0.014940453 -0.0098899668
-0.065935664 0.016926777 -0.0085592978
-0.065591417 0.017634237 -0.0091886939
-0.065124258 0.018129263 -0.009499969
-0.0647811 0.018834881 -0.01012783
-0.06431485 0.019328814 -0.010438344
-0.063972756 0.020032594 -0.011064677
-0.06325946 0.020105341 -0.010742536
-0.06266994 0.020388337 -0.010736468
-0.062080417 0.020671332 -0.0107304
-0.061490897 0.020954326 -0.010724333
-0.060901377 0.021237321 -0.010718265
-0.060437083 0.021729877 -0.011028285
-0.059847806 0.022012757 -0.011022219
-0.059258524 0.022295637 -0.011016155
-0.058291111 0.021950362 -0.010061031
-0.12122355 -0.0088264905 -0.0089811021
-0.11877748 -0.0063005602 -0.010535998
-0.11818772 -0.0060174498 -0.010529928
-0.11759796 -0.0057343394 -0.010523858
-0.11670105 -0.0061141453 -0.0095673548
-0.11611057 -0.0058306889 -0.009561277
-0.11562304 -0.0053263116 -0.0098722735
-0.11523893 -0.0046018972 -0.010499578
-0.11475235 -0.0040986347 -0.010809813
-0.11467866 -0.0027181322 -0.012381434
-0.11439955 -0.0017796856 -0.013318931
-0.11401814 -0.0010613716 -0.013940648
-0.11363735 -0.00034422037 -0.014561359
-0.11315398 0.00015467376 -0.01486832
-0.11256756 0.00043618094 -0.014862284
-0.11198113 0.00071768812 -0.014856248
-0.11149862 0.0012159512 -0.015162966
-0.1108083 0.0012807025 -0.014844176
-0.1098035 0.00069434254 -0.013584573
-0.10869005 -0.00011191951 -0.01200583
-0.10810149 0.00017061627 -0.011999772
-0.10751292 0.00045315202 -0.011993715
-0.10671189 0.00029984838 -0.011356774
-0.10601625 0.00036454323 -0.011034883
-0.10542697 0.00064742356 -0.011028817
-0.10515868 0.0015832951 -0.011969483
-0.10424841 0.0012131841 -0.011016686
-0.10312002 0.0004053516 -0.0094275698
-0.10252954 0.00068880804 -0.0094214929
-0.10280443 0.0027134384 -0.011945251
-0.10232388 0.0032127111 -0.012254271
-0.1019518 0.0039278502 -0.012877608
-0.10114723 0.0037775533 -0.01224216
-0.10055891 0.0040599746 -0.012236104
-0.099861614 0.0041261171 -0.011914962
-0.099382266 0.0046248171 -0.012223993
-0.099230848 0.0057696844 -0.013475752
-0.098752715 0.0062667085 -0.013783526
-0.098165587 0.0065485574 -0.013777482
-0.097468734 0.0066155745 -0.013457615
-0.096661188 0.0064675789 -0.012823152
-0.095962882 0.0065346444 -0.012502509
-0.095374793 0.0068169511 -0.012496457
-0.094675682 0.0068841856 -0.01217555
-0.094198629 0.007381564 -0.01248435
-0.093721963 0.0078785392 -0.0127929
-0.093245685 0.008375112 -0.0131012
-0.092322394 0.0080138706 -0.012151328
-0.091621757 0.0080816187 -0.011830152
-0.091033198 0.008364154 -0.011824094
-0.090444632 0.0086466894 -0.011818036
-0.08962974 0.0085000442 -0.011180952
-0.089040697 0.0087828096 -0.011174889
-0.088678949 0.0094942972 -0.011799862
-0.088090383 0.0097768325 -0.011793804
-0.087387748 0.0098453239 -0.011472352
-0.086798944 0.010127975 -0.011466292
-0.085865915 0.0097681368 -0.010512494
-0.085276395 0.010051132 -0.010506426
-0.084802195 0.010548234 -0.010816532
-0.084559016 0.011472047 -0.011757457
-0.084085867 0.011967766 -0.012066552
-0.083843954 0.012888355 -0.013004431
-0.08337187 0.013382697 -0.01331252
-0.08301574 0.014088443 -0.013933991
-0.082544565 0.014581698 -0.01424133
-0.08207377 0.015074556 -0.014548421
-0.081719264 0.015777795 -0.015167887
-0.081017166 0.015848408 -0.01484923
-0.080430984 0.016129801 -0.014843196
-0.079844803 0.016411195 -0.014837163
-0.079141669 0.016482092 -0.014518242
-0.078672439 0.01697398 -0.014825096
-0.07785131 0.016834667 -0.014193024
-0.076792672 0.016273286 -0.012931854
-0.07620506 0.016555365 -0.012925806
-0.075617455 0.016837442 -0.012919758
-0.075386122 0.017750999 -0.013855462
-0.074680328 0.017822526 -0.013535756
-0.072535582 0.015357581 -0.009428788
-0.065673225 0.017840134 -0.0084093399
-0.065329328 0.018546561 -0.009038602
-0.064738855 0.018830016 -0.0090325242
-0.064519666 0.019745601 -0.00997754
-0.064177416 0.020449046 -0.010604248
-0.063588135 0.020731926 -0.010598183
-0.062998854 0.021014804 -0.010592117
-0.062285151 0.02108795 -0.010269784
-0.061820298 0.021580566 -0.010579986
-0.061106116 0.021653941 -0.010257648
-0.0605166 0.021936936 -0.010251581
-0.05992708 0.022219932 -0.010245513
-0.05933756 0.022502927 -0.010239446
-0.058496013 0.022367321 -0.0096000405
-0.12142879 -0.0084088529 -0.0085193599
-0.12083782 -0.0081251645 -0.0085132774
-0.11906494 -0.0072741024 -0.0084950291
-0.11938748 -0.0050016926 -0.011339555
-0.1191024 -0.0040597059 -0.01227908
-0.11841292 -0.0039968849 -0.011958085
-0.11772288 -0.0039340132 -0.01163683
-0.11672564 -0.0045310017 -0.0103674
-0.11603351 -0.0044682194 -0.010044845
-0.11544375 -0.0041851085 -0.010038774
-0.11485399 -0.0039019983 -0.010032704
-0.11488298 -0.0023023584 -0.011921753
-0.11460362 -0.0013644171 -0.012859808
-0.11411908 -0.00086430128 -0.013167955
-0.11373805 -0.00014701924 -0.013789544
-0.11335763 0.00056910224 -0.014410126
-0.11287457 0.0010674254 -0.014717024
-0.11290817 0.0026453601 -0.016583307
-0.11232341 0.0029260723 -0.016577289
-0.11111602 0.0019116055 -0.014698924
-0.10979795 0.00067478995 -0.012496956
-0.10899976 0.00052185281 -0.011861199
-0.10841143 0.00080427394 -0.011855143
-0.10771732 0.0008690948 -0.011533846
-0.10723478 0.0013691161 -0.011843033
-0.1065402 0.0014341663 -0.011521731
-0.10595164 0.0017167021 -0.011515672
-0.10536308 0.0019992378 -0.011509615
-0.10477452 0.0022817736 -0.011503557
-0.10407865 0.0023472209 -0.011181987
-0.10348985 0.0026298715 -0.011175926
-0.10300884 0.003129381 -0.011485383
-0.10263605 0.0038448777 -0.012109597
-0.10226386 0.0045592147 -0.012732798
-0.10145988 0.0044094911 -0.012097491
-0.10087179 0.0046917973 -0.012091438
-0.10017491 0.0047581699 -0.011770368
-0.10002221 0.0059028207 -0.013022861
-0.099434838 0.0061847842 -0.013016815
-0.099065699 0.0068963589 -0.013638526
-0.098369502 0.0069634896 -0.013318732
-0.097782366 0.007245339 -0.013312689
-0.096865341 0.0068830159 -0.012363844
-0.096167125 0.0069502499 -0.012043014
-0.095579036 0.0072325561 -0.012036962
-0.094990954 0.0075148628 -0.012030909
-0.094735876 0.0084404917 -0.012968451
-0.094259575 0.0089364341 -0.01327643
-0.093672447 0.0092182839 -0.013270386
-0.092973769 0.0092863813 -0.012950313
-0.09205053 0.0089263953 -0.012000644
-0.091350064 0.0089944871 -0.011679536
-0.090761743 0.0092769079 -0.011673481
-0.089721084 0.008701642 -0.010404626
-0.089131802 0.008984522 -0.01039856
-0.088883355 0.0099102389 -0.011339994
-0.088748895 0.011047002 -0.012593694
-0.087820128 0.010689014 -0.011643204
-0.087003432 0.010544087 -0.011006237
-0.086070657 0.010184756 -0.010051878
-0.08548113 0.010467752 -0.01004581
-0.084891617 0.010750746 -0.010039742
-0.084417567 0.011247564 -0.010350038
-0.084290192 0.01238354 -0.01160687
-0.084048033 0.013303624 -0.012545309
-0.08357586 0.013797796 -0.012853584
-0.083219565 0.014503207 -0.013475426
-0.082748309 0.014996295 -0.013782951
-0.082508698 0.015910607 -0.014716095
-0.081922755 0.016191887 -0.014710065
-0.081336804 0.016473167 -0.014704034
-0.080634557 0.016544061 -0.014385187
-0.080164917 0.017035726 -0.014691972
-0.079462193 0.017106848 -0.01437312
-0.07899303 0.017598286 -0.01467991
-0.07817249 0.017459534 -0.014047977
-0.077350624 0.017320558 -0.013415019
-0.076172255 0.016548675 -0.011837213
-0.075584173 0.016830979 -0.011831161
-0.075115055 0.017324124 -0.012139975
-0.074527204 0.017606316 -0.012133924
-0.072740577 0.015774708 -0.0089676091
-0.065411001 0.018752744 -0.0082595041
-0.064943925 0.019247314 -0.0085711582
-0.06472449 0.020162392 -0.0095167365
-0.064382061 0.020865496 -0.010143819
-0.064040199 0.021567456 -0.010769883
-0.063575201 0.022059279 -0.011079505
-0.062862605 0.022132758 -0.010757763
-0.062149424 0.022206297 -0.010435758
-0.061310854 0.022070561 -0.009797032
-0.060721334 0.022353556 -0.0097909654
-0.060131814 0.022636551 -0.0097848978
-0.059542298 0.022919547 -0.0097788293
-0.058826901 0.022993496 -0.0094560347
-0.12163403 -0.0079912143 -0.0080576176
-0.12124454 -0.0072637442 -0.0086871656
-0.12065407 -0.0069802874 -0.0086810887
-0.11986114 -0.0071401517 -0.0080393692
-0.12018076 -0.0048682317 -0.010885561
-0.11999548 -0.0037070387 -0.012140506
-0.1199114 -0.0023312392 -0.013704983
-0.11932474 -0.0020496179 -0.013698945
-0.11843465 -0.0024229451 -0.012751339
-0.11733872 -0.003235535 -0.011170904
-0.11634086 -0.0038313868 -0.0099007171
-0.11575134 -0.0035483914 -0.0098946486
-0.11516182 -0.0032653962 -0.009888581
-0.11498448 -0.0021053918 -0.011146673
-0.1148077 -0.0009491489 -0.012400685
-0.11432306 -0.00044920115 -0.01270902
-0.11394187 0.00026774482 -0.013330979
-0.11366433 0.001200293 -0.014265049
-0.11369602 0.0027779059 -0.016132426
-0.11321419 0.003273932 -0.016437763
-0.1125265 0.0033393307 -0.016120387
-0.11121562 0.0021095595 -0.013927788
-0.10989729 0.00087280438 -0.011722737
-0.10920407 0.00093762676 -0.011401517
-0.10861576 0.0012200478 -0.011395462
-0.10802743 0.0015024689 -0.011389406
-0.10743911 0.0017848902 -0.011383351
-0.10685079 0.0020673112 -0.011377295
-0.10626246 0.0023497324 -0.011371241
-0.10567414 0.0026321535 -0.011365185
-0.10508581 0.0029145747 -0.011359129
-0.10439036 0.0029802523 -0.011037631
-0.10380179 0.0032627881 -0.011031574
-0.10321324 0.0035453239 -0.011025515
-0.10273252 0.004044259 -0.011334907
-0.10246793 0.004974483 -0.012273676
-0.10166412 0.0048250961 -0.011637996
-0.10129272 0.0055386382 -0.012261581
-0.10070512 0.0058207158 -0.012255533
-0.10044331 0.0067476523 -0.013192043
-0.099856414 0.0070293881 -0.013186002
-0.099269524 0.007311123 -0.013179962
-0.098682635 0.0075928578 -0.013173921
-0.09809573 0.0078745931 -0.01316788
-0.097399138 0.0079421196 -0.012847895
-0.09670198 0.008009702 -0.012527651
-0.096224874 0.0085058184 -0.012835809
-0.095637746 0.0087876674 -0.012829766
-0.095382303 0.0097102541 -0.013764821
-0.094795883 0.0099917613 -0.013758785
-0.094209462 0.010273268 -0.013752749
-0.093511865 0.010341711 -0.013433261
-0.092813693 0.01041021 -0.013113513
-0.092003018 0.010265408 -0.012479287
-0.091078594 0.0099066142 -0.011529042
-0.090038873 0.0093326056 -0.010260468
-0.089449838 0.009615371 -0.010254406
-0.089540571 0.011180192 -0.01214062
-0.0891793 0.011888009 -0.012763291
-0.088365354 0.011744347 -0.012128523
-0.086864904 0.010318381 -0.0095973294
-0.08616063 0.010387204 -0.0092744604
-0.085570872 0.010670314 -0.0092683909
-0.085096352 0.011167366 -0.0095791267
-0.084622219 0.011664015 -0.0098896092
-0.084494516 0.012799313 -0.011147189
-0.084252104 0.013718892 -0.012086187
-0.084010288 0.014636236 -0.013022902
-0.083423391 0.014917972 -0.013016862
-0.083298139 0.016043421 -0.014264303
-0.082712196 0.016324701 -0.014258272
-0.082126252 0.016605981 -0.014252241
-0.081540309 0.016887261 -0.01424621
-0.081070483 0.017378587 -0.014552926
-0.08048477 0.017659754 -0.014546898
-0.079899065 0.01794092 -0.01454087
-0.079313353 0.018222086 -0.01453484
-0.078493416 0.018083895 -0.013903046
-0.077789731 0.01815547 -0.013583747
-0.076376498 0.016964277 -0.011377719
-0.075788416 0.017246583 -0.011371666
-0.075319208 0.017739559 -0.011680667
-0.074731365 0.018021751 -0.011674616
-0.064558521 0.019948071 -0.0081037143
-0.064833492 0.021700919 -0.010315889
-0.06449154 0.022401633 -0.010941305
-0.063903213 0.022684053 -0.01093525
-0.063191041 0.022757757 -0.010613578
-0.062602475 0.023040293 -0.010607521
-0.061889488 0.023114171 -0.010285587
-0.061175916 0.023188109 -0.0099633913
-0.060586877 0.023470875 -0.0099573284
-0.059997838 0.023753639 -0.0099512655
-0.059031717 0.023410285 -0.0089952303
-0.12144961 -0.0068464461 -0.0082257995
-0.12095992 -0.0063416548 -0.008537339
-0.12057146 -0.0056164148 -0.0091657285
-0.12078749 -0.0035737942 -0.011687247
-0.1207018 -0.0021982642 -0.013252642
-0.12041617 -0.0012631027 -0.014186429
-0.11972973 -0.0011993799 -0.013867375
-0.11894183 -0.0013534008 -0.013234528
-0.11805127 -0.0017258816 -0.012286357
-0.11675025 -0.0029755554 -0.010073054
-0.11595608 -0.0031317719 -0.0094340323
-0.11557217 -0.0024100246 -0.010060928
-0.11518887 -0.0016894491 -0.010686805
-0.11490903 -0.00075187319 -0.011626743
-0.11452705 -3.410102e-05 -0.012250083
-0.1141457 0.00068250881 -0.012872414
-0.11407356 0.0020472179 -0.014432884
-0.11369365 0.0027601223 -0.015051695
-0.11331435 0.0034718767 -0.015669506
-0.11231644 0.0028907158 -0.014414798
-0.11141928 0.002523988 -0.013469595
-0.11062433 0.0023729196 -0.01283617
-0.10961842 0.0017878555 -0.011572287
-0.10924073 0.0025035699 -0.012195672
-0.10854809 0.0025689742 -0.011875034
-0.10796048 0.002851052 -0.011868986
-0.10716111 0.0026999426 -0.011232978
-0.10657303 0.002982249 -0.011226925
-0.10619766 0.0036972852 -0.011850842
-0.10571651 0.0041953502 -0.012159399
-0.10512915 0.0044773137 -0.012153354
-0.1040062 0.0036787307 -0.010571705
-0.10341764 0.0039612665 -0.010565647
-0.10272123 0.0040273955 -0.010243696
-0.10213242 0.0043100463 -0.010237636
-0.10186835 0.0052407016 -0.011178501
-0.10149679 0.0059539066 -0.011802458
-0.10123403 0.0068806815 -0.012739518
-0.10064714 0.0071624168 -0.012733477
-0.10006024 0.0074441517 -0.012727437
-0.099582165 0.0079400968 -0.013035264
-0.098995514 0.0082217166 -0.013029226
-0.098408848 0.0085033393 -0.013023187
-0.097822197 0.00878496 -0.013017149
-0.097125769 0.0088528274 -0.012697233
-0.096758805 0.0095616682 -0.013318699
-0.096172385 0.0098431753 -0.013312663
-0.095585965 0.010124682 -0.013306627
-0.095110081 0.010619141 -0.013613972
-0.094855696 0.011538019 -0.014546567
-0.094270222 0.011819072 -0.014540541
-0.093128942 0.011037929 -0.012968844
-0.092430629 0.011106708 -0.012648907
-0.091731735 0.011175544 -0.012328712
-0.09091986 0.011031305 -0.011693593
-0.090332255 0.011313383 -0.011687545
-0.089744642 0.011595461 -0.011681496
-0.08994703 0.013363439 -0.01387282
-0.088569425 0.012159617 -0.0116694
-0.087412409 0.011376309 -0.010086128
-0.086480126 0.011017995 -0.0091306455
-0.085890606 0.01130099 -0.0091245789
-0.085301086 0.011583986 -0.0091185104
-0.084942088 0.012293775 -0.0097456621
-0.084698841 0.013215088 -0.010687509
-0.084456176 0.01413416 -0.011627064
-0.084214114 0.015051001 -0.012564338
-0.083742447 0.015543866 -0.01287223
-0.08350163 0.016457515 -0.013806479
-0.082915686 0.016738795 -0.013800449
-0.082445316 0.017230183 -0.014107345
-0.081859604 0.017511349 -0.014101316
-0.081273898 0.017792515 -0.014095288
-0.080804378 0.018283278 -0.014401942
-0.080218904 0.01856433 -0.014395915
-0.079516768 0.018636012 -0.014077201
-0.078696989 0.018498156 -0.013445036
-0.077993393 0.018569898 -0.013125552
-0.07693541 0.018011559 -0.011863164
-0.076111205 0.017872805 -0.011227408
-0.07576067 0.018575486 -0.011851072
-0.074935518 0.01843719 -0.011215307
-0.065161131 0.022326091 -0.010171885
-0.064695865 0.022817405 -0.010481624
-0.064354293 0.023516646 -0.011106399
-0.06376645 0.023798838 -0.011100347
-0.062806882 0.023456236 -0.010147654
-0.062093977 0.023530282 -0.0098255323
-0.061505172 0.023812933 -0.0098194722
-0.060916375 0.024095584 -0.0098134121
-0.060202409 0.02416992 -0.0094910236
-0.059613366 0.024452686 -0.0094849616
-0.1211649 -0.0059245266 -0.0080761602
-0.12137917 -0.0038792477 -0.010603263
-0.12099164 -0.0031583572 -0.011227938
-0.12110566 -0.0013479057 -0.013421432
-0.12131867 0.00066860346 -0.015913986
-0.12033449 8.3385414e-05 -0.014660685
-0.11944778 -0.00028645 -0.013716544
-0.11825526 -0.0013107813 -0.01182742
-0.11705693 -0.0023401051 -0.0099290898
-0.11636578 -0.0022765093 -0.0096067488
-0.11577673 -0.0019937437 -0.0096006859
-0.11549595 -0.0010550366 -0.010542708
-0.11511318 -0.00033643641 -0.011167434
-0.11473104 0.00038099912 -0.011791146
-0.11455503 0.0015308806 -0.01304158
-0.11427697 0.0024611442 -0.013975247
-0.1138969 0.0031737145 -0.014594426
-0.11310556 0.0030234761 -0.013963189
-0.11241644 0.0030889057 -0.013644173
-0.11162294 0.0029384166 -0.013011402
-0.11082815 0.0027876836 -0.012377605
-0.11024126 0.0030694187 -0.012371564
-0.10965437 0.0033511538 -0.012365524
-0.10885735 0.0032006332 -0.01173069
-0.10826998 0.0034825967 -0.011724644
-0.10757694 0.0035483979 -0.011403816
-0.10698933 0.0038304757 -0.011397768
-0.10661393 0.0045442455 -0.012021041
-0.10613301 0.0050415643 -0.012329279
-0.10554611 0.0053232997 -0.012323238
-0.10474577 0.0051743775 -0.011688372
-0.10362205 0.0043772091 -0.010105779
-0.1027099 0.004010505 -0.00915071
-0.10212063 0.0042933854 -0.0091446452
-0.10174811 0.0050088088 -0.0097715203
-0.10170086 0.0063691749 -0.011343335
-0.10154588 0.007509829 -0.012595
-0.1010674 0.0080055464 -0.012902755
-0.10048098 0.0082870536 -0.01289672
-0.099894553 0.0085685607 -0.012890684
-0.099416941 0.009063649 -0.013198196
-0.098939694 0.0095583368 -0.013505461
-0.0981353 0.0094130822 -0.012872577
-0.09754888 0.0096945893 -0.012866541
-0.096962467 0.0099760965 -0.012860505
-0.096595913 0.010683456 -0.013481337
-0.096120015 0.01117729 -0.013788363
-0.095754601 0.011882823 -0.014407692
-0.095389768 0.012587219 -0.015026024
-0.09458413 0.012444701 -0.014395645
-0.093777187 0.012301954 -0.013764248
-0.093080245 0.012371134 -0.013445151
-0.092159376 0.012015767 -0.012498387
-0.091348514 0.011872326 -0.011863919
-0.090536326 0.011728651 -0.011228422
-0.089948714 0.012010729 -0.011222374
-0.089699984 0.012930148 -0.012160139
-0.088773504 0.012574884 -0.011210278
-0.087616891 0.011792421 -0.0096260719
-0.087028094 0.012075071 -0.0096200127
-0.086095348 0.011717609 -0.0086639626
-0.085505821 0.012000605 -0.0086578941
-0.084916309 0.0122836 -0.0086518265
-0.084672891 0.013205674 -0.0095957704
-0.084314838 0.013913282 -0.010221771
-0.084072642 0.014831507 -0.011161894
-0.083831042 0.015747499 -0.012099733
-0.083705135 0.016871609 -0.013348656
-0.083234437 0.017362941 -0.013655735
-0.082648724 0.017644107 -0.013649706
-0.082063019 0.017925274 -0.013643677
-0.081477307 0.01820644 -0.01363765
-0.081007704 0.018697036 -0.013944488
-0.08042223 0.018978091 -0.013938461
-0.079603516 0.018840566 -0.01330644
-0.078900568 0.018912416 -0.012987028
-0.078197055 0.018984327 -0.012667359
-0.077492967 0.019056296 -0.01234743
-0.076552033 0.018708622 -0.011398182
-0.076083094 0.019200405 -0.011706796
-0.075377285 0.019272549 -0.01138609
-0.065242462 0.022533143 -0.00939578
-0.065146297 0.02364989 -0.01065314
-0.064804643 0.024347888 -0.01127727
-0.064217269 0.024629852 -0.011271224
-0.06350638 0.024704225 -0.010950211
-0.062422726 0.024154713 -0.0096817277
-0.061709661 0.024229044 -0.0093594166
-0.06112086 0.024511693 -0.0093533574
-0.06053206 0.024794346 -0.0093472963
-0.059943259 0.025076997 -0.0093412362
-0.12157086 -0.0050659473 -0.0082501927
-0.1215835 -0.0034634739 -0.010143582
-0.12129599 -0.0025241207 -0.011083799
-0.12210588 0.0008010426 -0.015463468
-0.12172041 0.0015132282 -0.016079953
-0.12113659 0.0017934884 -0.016073944
-0.11975176 0.00034457626 -0.013571864
-0.1186616 -0.00046010897 -0.011997569
-0.11766873 -0.0010497679 -0.010732328
-0.11667261 -0.0016413429 -0.009462975
-0.11608382 -0.0013586924 -0.0094569139
-0.11570027 -0.00063926261 -0.010083028
-0.11521468 -0.00013883217 -0.010392676
-0.1148323 0.00057873398 -0.01101727
-0.1147587 0.001945309 -0.012583386
-0.11448038 0.0028750703 -0.013517608
-0.11410014 0.0035873065 -0.014137156
-0.11330897 0.0034374022 -0.01350555
-0.11272326 0.0037185682 -0.013499523
-0.11203399 0.0037842789 -0.013180318
-0.11144804 0.0040655583 -0.013174287
-0.11065377 0.0039158594 -0.012541136
-0.11006735 0.0041973665 -0.0125351
-0.10937615 0.0042633503 -0.012215119
-0.10857923 0.0041136299 -0.011580421
-0.1079921 0.0043954793 -0.011574377
-0.10751062 0.0048928587 -0.011882796
-0.10692373 0.0051745935 -0.011876754
-0.10644287 0.0056714565 -0.012184927
-0.10585622 0.0059530772 -0.012178889
-0.10526956 0.0062346985 -0.01217285
-0.10414827 0.00544065 -0.010593166
-0.10313021 0.0048596193 -0.0093235867
-0.10243339 0.0049261404 -0.0090009999
-0.10184435 0.0052089058 -0.0089949369
-0.10179689 0.0065694186 -0.010568964
-0.10174962 0.0079244254 -0.01213662
-0.10137906 0.00863373 -0.012758289
-0.10079288 0.0089151226 -0.012752255
-0.10031509 0.0094098719 -0.013059699
-0.099729143 0.0096911518 -0.013053668
-0.0991432 0.0099724308 -0.013047637
-0.098557249 0.010253711 -0.013041606
-0.097971305 0.010534991 -0.013035575
-0.097494848 0.011028885 -0.013342781
-0.097456418 0.012369985 -0.014899157
-0.096871898 0.012650583 -0.014893141
-0.09628737 0.012931183 -0.014887124
-0.095702842 0.013211781 -0.014881108
-0.095118314 0.013492381 -0.014875092
-0.094091415 0.012927642 -0.013619608
-0.09339489 0.012997046 -0.013300581
-0.092586324 0.01285463 -0.012667787
-0.091888353 0.012924089 -0.012347989
-0.090965286 0.012569107 -0.011399125
-0.09026552 0.012638563 -0.011078294
-0.089903802 0.013344913 -0.011701575
-0.088523842 0.012139082 -0.0094884066
-0.087821379 0.012208533 -0.0091660172
-0.087232582 0.012491183 -0.0091599571
-0.086300083 0.012134229 -0.0082033463
-0.085710563 0.012417224 -0.0081972778
-0.085121043 0.012700219 -0.0081912111
-0.084531523 0.012983214 -0.0081851427
-0.08417315 0.013691867 -0.0088130534
-0.084046222 0.014823414 -0.01007187
-0.083689108 0.015528852 -0.010696723
-0.083217084 0.016022123 -0.011005747
-0.083322674 0.017566983 -0.012884802
-0.082736731 0.017848261 -0.012878771
-0.082150787 0.018129541 -0.01287274
-0.081564844 0.018410821 -0.012866708
-0.081326969 0.01931989 -0.013799832
-0.080625564 0.019391848 -0.013481008
-0.079807006 0.01925466 -0.012848616
-0.079104148 0.019326678 -0.012529019
-0.078400709 0.019398756 -0.012209165
-0.077696711 0.019470893 -0.011889052
-0.077110052 0.019752512 -0.011883013
-0.076523401 0.020034134 -0.011876975
-0.075699866 0.019897187 -0.011242003
-0.065473273 0.024273261 -0.010509234
-0.065008633 0.02476299 -0.010818333
-0.064544365 0.025252322 -0.011127183
-0.063833892 0.025326917 -0.010806242
-0.06299907 0.025194095 -0.01016963
-0.062038567 0.024853192 -0.009215801
-0.061450005 0.025135728 -0.0092097437
-0.060861442 0.025418265 -0.0092036854
-0.060272884 0.0257008 -0.0091976281
-0.12188785 -0.002828599 -0.0099997642
-0.12160009 -0.0018903982 -0.010939775
-0.12240794 0.0014298512 -0.015318491
-0.12222057 0.00257157 -0.016556209
-0.12163745 0.002851492 -0.016550208
-0.11995517 0.00075850246 -0.013114225
-0.11926882 0.00082301663 -0.012794865
-0.11807587 -0.00019861774 -0.010903502
-0.11718317 -0.00057014654 -0.009951341
-0.11639065 -0.00072415662 -0.0093132593
-0.11580209 -0.00044162082 -0.009307201
-0.11531627 5.8932466e-05 -0.0096172905
-0.11503638 0.00099400233 -0.010558147
-0.11496235 0.0023597374 -0.012125192
-0.11458126 0.0030732539 -0.012746618
-0.11409809 0.0035701625 -0.013053941
-0.11340937 0.003635813 -0.012734557
-0.11282343 0.0039170929 -0.012728525
-0.11223748 0.0041983724 -0.012722495
-0.11165153 0.0044796518 -0.012716464
-0.11106559 0.0047609317 -0.012710433
-0.11047965 0.0050422112 -0.012704402
-0.10968459 0.0048933025 -0.01207087
-0.10899324 0.0049595679 -0.011750701
-0.10830134 0.0050258874 -0.011430272
-0.10771444 0.0053076223 -0.01142423
-0.10723327 0.0058044316 -0.011732586
-0.10664661 0.0060860524 -0.011726547
-0.10605996 0.0063676732 -0.011720509
-0.1054733 0.0066492949 -0.011714471
-0.10467321 0.0065015065 -0.011079367
-0.10354982 0.0057073552 -0.0094961822
-0.10263795 0.0053424211 -0.0085407579
-0.10204892 0.0056251865 -0.008534696
-0.10145988 0.0059079519 -0.0085286321
-0.1018455 0.0081249736 -0.011363824
-0.10158263 0.0090479907 -0.01230028
-0.1013204 0.0099687716 -0.013234466
-0.10084298 0.010462495 -0.013541344
-0.10025775 0.010743434 -0.01353532
-0.099672511 0.011024373 -0.013529297
-0.098869674 0.010880479 -0.0128972
-0.098283969 0.011161645 -0.012891171
-0.098243959 0.012502477 -0.014448457
-0.097768538 0.012994383 -0.01475435
-0.097184248 0.01327487 -0.014748337
-0.096709453 0.013766266 -0.015053986
-0.096015662 0.013835842 -0.014736309
-0.095431373 0.014116328 -0.014730295
-0.094736792 0.014186071 -0.014412359
-0.093598306 0.013410972 -0.012842942
-0.093012594 0.013692139 -0.012836915
-0.092092007 0.013338518 -0.011889795
-0.091393545 0.013408201 -0.011569552
-0.090469502 0.013053663 -0.010619358
-0.089882143 0.013335627 -0.010613313
-0.088841736 0.012767882 -0.0093447957
-0.088025868 0.012624645 -0.0087059634
-0.087551124 0.013120096 -0.0090164226
-0.086848266 0.013189945 -0.0086938422
-0.08401975 0.014815312 -0.0089800749
-0.083777823 0.01573281 -0.0099220891
-0.083305575 0.016226199 -0.010231552
-0.082949348 0.016929928 -0.01085577
-0.082709305 0.017842634 -0.011793221
-0.082354285 0.018543635 -0.012414916
-0.081768341 0.018824913 -0.012408885
-0.081530213 0.019733483 -0.013342564
-0.080596454 0.019387474 -0.012396823
-0.080010504 0.019668752 -0.012390791
-0.079307728 0.019740941 -0.012071012
-0.07860437 0.019813186 -0.011750971
-0.07801795 0.020094691 -0.011744935
-0.077313796 0.020167109 -0.011424634
