# .PCD v0.7 - Point Cloud Data file format
VERSION 0.7
FIELDS x y z
SIZE 4 4 4
TYPE F F F
COUNT 1 1 1
WIDTH 1249
HEIGHT 1
VIEWPOINT 0 0 0 1 0 0 0
POINTS 1249
DATA ascii
-0.10452603 -0.01972482 -0.078069635
-0.10395755 -0.019451922 -0.078063786
-0.10349295 -0.018960986 -0.078336351
-0.10323647 -0.018035427 -0.079164445
-0.10277288 -0.017545814 -0.079436153
-0.10251765 -0.016623361 -0.080261663
-0.10298838 -0.014196382 -0.083012998
-0.10263084 -0.013496633 -0.083556056
-0.10217036 -0.013011832 -0.083824359
-0.10160651 -0.012741164 -0.083818555
-0.10104268 -0.012470496 -0.083812751
-0.10047884 -0.012199828 -0.083806947
-0.099182107 -0.013427897 -0.081877798
-0.098511472 -0.013371157 -0.081596352
-0.097945876 -0.013099644 -0.081590533
-0.09801317 -0.011543901 -0.083235256
-0.097554304 -0.011059672 -0.083503798
-0.096884616 -0.011002143 -0.083223648
-0.096002281 -0.01137168 -0.082393512
-0.095224448 -0.011528048 -0.081837058
-0.11937821 -0.020516543 -0.083831914
-0.11900849 -0.019812971 -0.084373489
-0.11834817 -0.019758934 -0.084094107
-0.1165123 -0.022314576 -0.080512255
-0.11564989 -0.022698686 -0.07967601
-0.11488469 -0.022864472 -0.07911548
-0.11431732 -0.022592109 -0.079109631
-0.11394911 -0.021882234 -0.079658508
-0.1138798 -0.02051983 -0.081035659
-0.11371157 -0.019379491 -0.082132354
-0.1133454 -0.018675162 -0.082676515
-0.11258169 -0.018837102 -0.082120724
-0.1117167 -0.019216239 -0.081288323
-0.11084967 -0.019596266 -0.08045397
-0.11028341 -0.019324437 -0.080448143
-0.10951492 -0.019487388 -0.079888873
-0.10864361 -0.019868478 -0.079051241
-0.10766812 -0.020468922 -0.077933289
-0.10709985 -0.02019613 -0.07792744
-0.1072481 -0.018399214 -0.079865538
-0.10657906 -0.018344287 -0.079582646
-0.10539507 -0.019377762 -0.077909887
-0.1042055 -0.020416109 -0.076229244
-0.10363591 -0.020142676 -0.076223388
-0.10348263 -0.018995322 -0.077334948
-0.10291392 -0.018722318 -0.077329092
-0.10255377 -0.018013811 -0.077880643
-0.10271446 -0.016222866 -0.079818867
-0.10308112 -0.014012027 -0.082297012
-0.10261992 -0.01352646 -0.082566127
-0.10236617 -0.012613362 -0.083383806
-0.10180233 -0.012342693 -0.083378009
-0.1012385 -0.012072024 -0.083372198
-0.10067465 -0.011801356 -0.083366394
-0.099901974 -0.011957755 -0.082811788
-0.098707907 -0.012971442 -0.081154428
-0.098142304 -0.012699929 -0.081148602
-0.098209143 -0.011145119 -0.082794368
-0.097855456 -0.010448016 -0.083337381
-0.097186141 -0.010390272 -0.083057277
-0.096198477 -0.010972431 -0.081952095
-0.095527217 -0.010914778 -0.081670895
-0.11976726 -0.019685317 -0.083939247
-0.11939753 -0.018982938 -0.084480315
-0.11883479 -0.018712793 -0.084474526
-0.11798044 -0.019090313 -0.0836481
-0.11614269 -0.021642562 -0.080063984
-0.11527985 -0.022025883 -0.079227209
-0.11481208 -0.021535285 -0.079498574
-0.11454305 -0.020609239 -0.08032304
-0.11417552 -0.019902576 -0.080869682
-0.11390777 -0.018980244 -0.081690937
-0.11344218 -0.018492552 -0.081960395
-0.1127779 -0.018437853 -0.081679314
-0.1116126 -0.019467914 -0.080017351
-0.11094578 -0.019413447 -0.079734743
-0.11027844 -0.019358937 -0.079451911
-0.10940804 -0.019739874 -0.078613773
-0.10863736 -0.019903472 -0.078051962
-0.10796755 -0.019849027 -0.077767812
-0.10790981 -0.018487932 -0.079151355
-0.10764876 -0.017565096 -0.079976551
-0.10718452 -0.017076815 -0.080247305
-0.10610646 -0.017888503 -0.078856401
-0.10440332 -0.020013567 -0.075784191
-0.10383373 -0.019740133 -0.075778335
-0.10336825 -0.01924812 -0.07605233
-0.10279887 -0.018974796 -0.076046474
-0.10212493 -0.018919835 -0.075760752
-0.10155533 -0.018646402 -0.075754881
-0.10338047 -0.013398507 -0.082130864
-0.10281597 -0.013127523 -0.082125053
-0.10225148 -0.012856538 -0.082119249
-0.10168698 -0.012585554 -0.082113437
-0.10112248 -0.01231457 -0.082107626
-0.10066222 -0.011829853 -0.082376704
-0.10009795 -0.011558974 -0.082370892
-0.098377638 -0.013646021 -0.079329424
-0.097810932 -0.013373977 -0.079323582
-0.098405115 -0.010746337 -0.082353473
-0.09805128 -0.010049544 -0.082896829
-0.097487435 -0.0097788759 -0.082891025
-0.096500628 -0.010359856 -0.081786022
-0.09582974 -0.010301988 -0.081504874
-0.0952648 -0.010030792 -0.081499055
-0.12005932 -0.01907126 -0.083772913
-0.11959297 -0.018585237 -0.084040619
-0.11932026 -0.017669087 -0.084854051
-0.11875817 -0.017399257 -0.08484827
-0.11741764 -0.018853789 -0.082653597
-0.11616715 -0.020100024 -0.080721289
-0.11550315 -0.020045888 -0.080439396
-0.11493755 -0.019774374 -0.080433577
-0.11466891 -0.018852191 -0.081255347
-0.11430199 -0.018148271 -0.081800193
-0.11353903 -0.018309802 -0.081243724
-0.11237552 -0.019339561 -0.079580732
-0.111709 -0.019285044 -0.07929796
-0.11053799 -0.02031992 -0.077625841
-0.10997018 -0.020047344 -0.077619992
-0.1093009 -0.019992955 -0.077335671
-0.10873286 -0.019720269 -0.077329829
-0.10826674 -0.019229615 -0.077602461
-0.10800487 -0.018304463 -0.078430772
-0.10784542 -0.017164914 -0.079534113
-0.10778809 -0.015813297 -0.0809099
-0.10691715 -0.016189042 -0.080075756
-0.10460114 -0.019611025 -0.075339139
-0.10403155 -0.019337591 -0.075333282
-0.10356599 -0.018845737 -0.075607449
-0.10299662 -0.018572412 -0.075601593
-0.10242724 -0.018299086 -0.075595737
-0.10269265 -0.016287116 -0.077822313
-0.10357653 -0.012999571 -0.081689797
-0.10301203 -0.012728586 -0.081683993
-0.10244752 -0.012457602 -0.081678174
-0.10188302 -0.012186618 -0.08167237
-0.10131853 -0.011915633 -0.081666559
-0.10075403 -0.011644648 -0.081660755
-0.10018953 -0.011373665 -0.081654936
-0.098785222 -0.012815617 -0.079440854
-0.098218963 -0.012543785 -0.079435028
-0.098810934 -0.0099217417 -0.08246208
-0.098247096 -0.0096510733 -0.082456276
-0.097683258 -0.0093804058 -0.082450472
-0.09680254 -0.0097477585 -0.081620082
-0.096132033 -0.0096896747 -0.081338972
-0.095461003 -0.0096315453 -0.081057645
-0.12025484 -0.018673409 -0.083333045
-0.11978841 -0.01818754 -0.083600923
-0.12028501 -0.015557717 -0.086591534
-0.11972466 -0.015288722 -0.086585768
-0.11790571 -0.017807892 -0.083035983
-0.11665801 -0.019049816 -0.081106976
-0.11599498 -0.018995335 -0.080825567
-0.11552858 -0.018507637 -0.08109536
-0.11516114 -0.017804259 -0.081640117
-0.11479427 -0.017101977 -0.082184024
-0.11403257 -0.017262504 -0.081628501
-0.11247222 -0.01915664 -0.07886117
-0.11120228 -0.020409565 -0.076909378
-0.1104321 -0.020573881 -0.076345578
-0.10945749 -0.02117661 -0.075221181
-0.10949817 -0.019591516 -0.07689184
-0.10893013 -0.019318832 -0.076885991
-0.10846394 -0.018828334 -0.077158809
-0.10810001 -0.018120851 -0.07770963
-0.10773665 -0.017414477 -0.078259587
-0.10828855 -0.014768508 -0.081295215
-0.10772406 -0.014497523 -0.081289403
-0.10572774 -0.01724834 -0.077408038
-0.10433311 -0.018716678 -0.075168431
-0.10417879 -0.017572014 -0.07628122
-0.10371409 -0.017081816 -0.076554485
-0.10345737 -0.016158463 -0.077384666
-0.10433707 -0.012871618 -0.081254542
-0.10377257 -0.012600633 -0.08124873
-0.10320807 -0.012329649 -0.081242919
-0.10264357 -0.012058665 -0.081237115
-0.10207907 -0.011787681 -0.081231304
-0.10151457 -0.011516696 -0.081225492
-0.10095007 -0.011245713 -0.081219681
-0.10038558 -0.010974728 -0.081213877
-0.099821083 -0.010703743 -0.081208058
-0.099361338 -0.010219653 -0.081477493
-0.099111483 -0.0093107661 -0.082296126
-0.098442912 -0.0092526013 -0.082015723
-0.097879075 -0.0089819338 -0.082009919
-0.097209767 -0.0089236191 -0.081729293
-0.096328154 -0.0092905816 -0.080897734
-0.095657207 -0.0092322966 -0.080616236
-0.12054659 -0.018059984 -0.083167017
-0.12008023 -0.017574543 -0.08343485
-0.12009575 -0.016016835 -0.085066386
-0.11953452 -0.015747424 -0.085060611
-0.11839265 -0.016764428 -0.083417483
-0.11753812 -0.017139532 -0.082590148
-0.11648566 -0.017947234 -0.081210837
-0.11631384 -0.016813997 -0.082304277
-0.11575043 -0.016543539 -0.08229848
-0.11508859 -0.016488211 -0.082018182
-0.11432743 -0.016648196 -0.081462748
-0.11266895 -0.018756302 -0.078418545
-0.11129883 -0.02022649 -0.076186508
-0.11022461 -0.021047551 -0.074782163
-0.10894197 -0.022312103 -0.072809137
-0.10908585 -0.020500902 -0.074770443
-0.10912741 -0.018917395 -0.07644216
-0.10866114 -0.018427053 -0.076715149
-0.10829706 -0.017719885 -0.077266321
-0.10783166 -0.017230589 -0.077538669
-0.1084846 -0.014369571 -0.080854148
-0.1079201 -0.014098587 -0.080848336
-0.10715217 -0.014256959 -0.080291122
-0.10556307 -0.016141564 -0.077515312
-0.10540742 -0.015005391 -0.078620076
-0.10473819 -0.014949179 -0.078336924
-0.1042749 -0.014461729 -0.078608423
-0.10453311 -0.012472681 -0.080813475
-0.10396861 -0.012201697 -0.080807664
-0.10340411 -0.011930712 -0.080801859
-0.10283961 -0.011659728 -0.080796041
-0.10227513 -0.011388743 -0.080790237
-0.10171062 -0.01111776 -0.080784425
-0.10114612 -0.010846775 -0.080778621
-0.10058162 -0.01057579 -0.080772802
-0.10001713 -0.010304807 -0.080766998
-0.099766411 -0.0093954671 -0.081586778
-0.099307224 -0.0089124488 -0.081855752
-0.098638736 -0.0088541294 -0.08157517
-0.098074891 -0.0085834619 -0.081569366
-0.097405665 -0.0085249916 -0.081288576
-0.09673591 -0.0084664775 -0.081007563
-0.12074203 -0.017662287 -0.08272732
-0.12037183 -0.016962022 -0.083268911
-0.12019458 -0.015834259 -0.084355347
-0.11963314 -0.015564743 -0.084349573
-0.11858802 -0.016366884 -0.082977958
-0.11773371 -0.016741524 -0.082150109
-0.1170729 -0.016686292 -0.081869863
-0.11660735 -0.016200818 -0.082138516
-0.11624007 -0.015501144 -0.082680985
-0.1155792 -0.015445475 -0.082401164
-0.11462206 -0.016034367 -0.081297122
-0.11336394 -0.017272903 -0.079361111
-0.11139545 -0.020043273 -0.075463071
-0.10981303 -0.021962527 -0.072650775
-0.10914026 -0.021908611 -0.072363034
-0.10867159 -0.021414584 -0.072639026
-0.10942615 -0.01829835 -0.076277338
-0.10885834 -0.018025773 -0.076271489
-0.10859577 -0.017102035 -0.077101365
-0.10823217 -0.016396733 -0.07765159
-0.10857949 -0.014185284 -0.08013732
-0.10811615 -0.01369965 -0.080407269
-0.10745005 -0.013643105 -0.080125697
-0.10678343 -0.013586516 -0.079843894
-0.10580921 -0.014174574 -0.078731976
-0.10514065 -0.014118081 -0.078449085
-0.10457461 -0.013846356 -0.078443259
-0.10472916 -0.012073744 -0.080372415
-0.10416467 -0.01180276 -0.080366597
-0.10360017 -0.011531776 -0.080360785
-0.10303567 -0.011260791 -0.080354981
-0.10247117 -0.010989808 -0.08034917
-0.10190667 -0.010718822 -0.080343358
-0.10134217 -0.010447837 -0.080337547
-0.10077767 -0.010176854 -0.080331743
-0.10021317 -0.0099058691 -0.080325931
-0.10006658 -0.0087846955 -0.081421174
-0.099502958 -0.0085141324 -0.08141537
-0.098939344 -0.0082435692 -0.081409566
-0.098375723 -0.0079730069 -0.081403762
-0.097706869 -0.0079143224 -0.081123017
-0.097037502 -0.0078555923 -0.08084204
-0.12093747 -0.01726459 -0.082287617
-0.12056711 -0.01656463 -0.08282955
-0.1200048 -0.016294699 -0.082823768
-0.1194425 -0.016024765 -0.082817979
-0.11878337 -0.015969342 -0.082538426
-0.11812374 -0.015913874 -0.082258657
-0.117561 -0.015643733 -0.082252868
-0.11699826 -0.015373589 -0.082247078
-0.11663095 -0.014675098 -0.082789041
-0.11606864 -0.014405166 -0.082783252
-0.11540821 -0.014349113 -0.082503691
-0.11356029 -0.016873345 -0.078919359
-0.11169353 -0.0194233 -0.075298503
-0.11051881 -0.020461755 -0.073611699
-0.10944053 -0.021285219 -0.072198965
-0.10937962 -0.019914888 -0.073599979
-0.10962335 -0.017897068 -0.075833678
-0.10946118 -0.016756818 -0.076942369
-0.10899569 -0.016268279 -0.077214628
-0.10853057 -0.015780123 -0.077486672
-0.10877561 -0.013786192 -0.079696082
-0.10851457 -0.012872434 -0.080517434
-0.1077477 -0.013029729 -0.079960398
-0.10708146 -0.012972922 -0.07967864
-0.1064147 -0.012916072 -0.079396673
-0.10543989 -0.013503083 -0.078284055
-0.10477119 -0.013446329 -0.078000993
-0.10420515 -0.013174605 -0.077995166
-0.10436071 -0.011403823 -0.079925537
-0.10379621 -0.011132838 -0.079919726
-0.10323171 -0.010861855 -0.079913907
-0.10266721 -0.01059087 -0.079908103
-0.10210271 -0.010319885 -0.079902291
-0.10153822 -0.010048902 -0.079896487
-0.10097372 -0.0097779166 -0.079890668
-0.10092992 -0.0084448578 -0.081261493
-0.10047064 -0.0079625845 -0.08153037
-0.09980312 -0.0079039419 -0.081249893
-0.099135086 -0.0078452537 -0.080969185
-0.098676324 -0.007363026 -0.081238292
-0.097902685 -0.0075158509 -0.080682464
-0.097338855 -0.007245183 -0.08067666
-0.1211329 -0.016866891 -0.081847921
-0.12057016 -0.016596748 -0.081842132
-0.12010379 -0.016111873 -0.082110479
-0.11954126 -0.015841834 -0.08210469
-0.11888193 -0.01578632 -0.081824757
-0.11812489 -0.015945511 -0.081270032
-0.11765911 -0.015460513 -0.081538811
-0.11719368 -0.014975891 -0.081807382
-0.11731315 -0.01321051 -0.083716206
-0.11675193 -0.0129411 -0.083710432
-0.11560357 -0.01395157 -0.082064167
-0.11484429 -0.014109274 -0.081509843
-0.11319126 -0.016202377 -0.078471787
-0.11122183 -0.018966869 -0.07456886
-0.11014704 -0.01978578 -0.07316079
-0.11028728 -0.017985763 -0.075116515
-0.10982055 -0.017495789 -0.075390026
-0.10945556 -0.016789349 -0.075942233
-0.10919251 -0.015867783 -0.076771833
-0.10903133 -0.014732925 -0.077876903
-0.10927453 -0.012744581 -0.080082521
-0.10901321 -0.011833104 -0.080902465
-0.10824762 -0.011989405 -0.080346376
-0.10768379 -0.011718738 -0.080340572
-0.10671286 -0.01230274 -0.07923159
-0.10584134 -0.012674087 -0.078396134
-0.10496777 -0.013046302 -0.077558726
-0.10398881 -0.013634666 -0.076441057
-0.10342187 -0.013362516 -0.076435216
-0.10388926 -0.010947292 -0.079202533
-0.10342776 -0.010462917 -0.079472847
-0.10286326 -0.010191932 -0.079467036
-0.10229876 -0.0099209491 -0.079461224
-0.10183805 -0.0094371634 -0.079731338
-0.1017926 -0.0081052827 -0.081101932
-0.10143682 -0.007411893 -0.081645206
-0.10087407 -0.0071417498 -0.081639409
-0.10031132 -0.0068716072 -0.081633613
-0.099435389 -0.0072353226 -0.080803879
-0.098871984 -0.0069648647 -0.080798082
-0.098098509 -0.0071173795 -0.080241911
-0.097534671 -0.0068467115 -0.080236107
-0.12104031 -0.017114555 -0.080584027
-0.1207656 -0.016199049 -0.081402436
-0.12029915 -0.015714331 -0.081670962
-0.11973663 -0.015444291 -0.081665166
-0.11907736 -0.015388621 -0.081385061
-0.11832048 -0.015547504 -0.080829993
-0.1176599 -0.015491808 -0.08054924
-0.11729166 -0.014792412 -0.081093147
-0.11711898 -0.013666702 -0.082184225
-0.11655689 -0.013396874 -0.082178444
-0.11579894 -0.013554025 -0.081624642
-0.11494139 -0.013925388 -0.080795214
-0.11378478 -0.014941698 -0.079136364
-0.11262275 -0.015962768 -0.077469744
-0.11115337 -0.017639659 -0.074958056
-0.11058556 -0.017367082 -0.074952208
-0.1101189 -0.016877541 -0.075225666
-0.10985497 -0.015955511 -0.076056443
-0.10959165 -0.015035643 -0.076885268
-0.10953091 -0.013688178 -0.078266218
-0.10947042 -0.012345955 -0.079641789
-0.10920887 -0.011434942 -0.080462255
-0.10854449 -0.011377626 -0.080181241
-0.1078796 -0.011320267 -0.079900019
-0.10680709 -0.012117577 -0.078513853
-0.10603769 -0.012274527 -0.077954382
-0.10475262 -0.013506162 -0.076003931
-0.10408234 -0.013449298 -0.075719416
-0.10351519 -0.013177041 -0.075713575
-0.10408539 -0.010548199 -0.078761294
-0.10413827 -0.009000822 -0.080410063
-0.10419089 -0.0074606459 -0.082051165
-0.10311455 -0.0082479808 -0.080673486
-0.10255137 -0.0079776291 -0.080667689
-0.10209164 -0.0074957246 -0.0809367
-0.10163225 -0.0070141945 -0.081205502
-0.10106951 -0.0067440518 -0.081199713
-0.10050677 -0.0064739091 -0.081193924
-0.099839784 -0.0064147338 -0.080913521
-0.099067651 -0.0065667029 -0.080357872
-0.098504253 -0.0062962449 -0.080352075
-0.097730488 -0.0064482405 -0.079795554
-0.12065835 -0.018010711 -0.078488618
-0.12086496 -0.016016047 -0.080688052
-0.12068674 -0.014888438 -0.081779756
-0.12012465 -0.01461861 -0.081773974
-0.11927281 -0.014990923 -0.080945365
-0.11851607 -0.015149496 -0.080389954
-0.11775817 -0.015308316 -0.079833686
-0.11709686 -0.015252484 -0.079552323
-0.11692421 -0.014124312 -0.080647491
-0.11636125 -0.013854064 -0.080641694
-0.11570016 -0.013797733 -0.080360971
-0.1148415 -0.014169812 -0.079529107
-0.11398083 -0.014542761 -0.078695297
-0.11331701 -0.014486544 -0.078413054
-0.11225343 -0.015291278 -0.077021822
-0.1113867 -0.015666854 -0.076182142
-0.11082022 -0.015394916 -0.076176308
-0.11035456 -0.01490729 -0.076448657
-0.11029235 -0.013560075 -0.077830449
-0.1101299 -0.012431903 -0.078930862
-0.10996795 -0.011307239 -0.080027848
-0.10930386 -0.011249873 -0.079746664
-0.10863926 -0.011192463 -0.07946527
-0.10797413 -0.011135009 -0.079183653
-0.10700329 -0.011718328 -0.078072444
-0.10623404 -0.011874967 -0.077512629
-0.10484646 -0.013320745 -0.075282112
-0.1042793 -0.013048489 -0.075276278
-0.10371216 -0.012776231 -0.075270437
-0.10428151 -0.010149106 -0.078320056
-0.10494819 -0.0073332386 -0.081617765
-0.10469282 -0.0064312248 -0.082433067
-0.10402901 -0.0063721705 -0.082153805
-0.10274696 -0.0075796214 -0.080227643
-0.10228715 -0.007097872 -0.080496833
-0.1018277 -0.0066164965 -0.080765806
-0.10126495 -0.0063463538 -0.080760017
-0.10080606 -0.005865457 -0.081028789
-0.10003529 -0.0060168817 -0.080473654
-0.099263318 -0.006168541 -0.079917662
-0.098490141 -0.006320437 -0.079360813
-0.097821072 -0.0062610866 -0.079079159
-0.12046818 -0.018477244 -0.076938912
-0.12057933 -0.016693398 -0.078870662
-0.12107372 -0.014063828 -0.081888393
-0.12051207 -0.013794209 -0.081882603
-0.11956482 -0.014379166 -0.080780327
-0.11890549 -0.014323082 -0.08049988
-0.11785652 -0.015124681 -0.079117566
-0.11719498 -0.015068757 -0.078835823
-0.11643486 -0.015227761 -0.078277476
-0.11606687 -0.01452721 -0.078824215
-0.1155028 -0.014256436 -0.078818403
-0.11474137 -0.014414809 -0.078260042
-0.11407785 -0.014358542 -0.077977628
-0.11351313 -0.014087452 -0.077971816
-0.11294842 -0.013816362 -0.077966005
-0.11198419 -0.014404549 -0.076851591
-0.11161894 -0.013703275 -0.077400506
-0.11115406 -0.013217449 -0.077671736
-0.11068954 -0.012732002 -0.077942759
-0.11032587 -0.012033121 -0.078489967
-0.10986222 -0.011548703 -0.078760348
-0.10939892 -0.01106466 -0.079030521
-0.10832937 -0.011861472 -0.077642664
-0.10776443 -0.011590277 -0.077636845
-0.10699578 -0.011746815 -0.077076688
-0.10591861 -0.01254714 -0.075681224
-0.10504343 -0.012919935 -0.074838981
-0.10478564 -0.012003265 -0.075669557
-0.10473426 -0.010661188 -0.077053413
-0.105093 -0.0084749563 -0.079535447
-0.10544924 -0.006303966 -0.082000174
-0.1049898 -0.0058242027 -0.082267836
-0.10432636 -0.0057649361 -0.081988618
-0.10366241 -0.005705623 -0.081709176
-0.10310075 -0.0054360037 -0.081703402
-0.10264205 -0.0049563902 -0.081971273
-0.10208061 -0.0046868753 -0.081965499
-0.10131232 -0.0048370929 -0.081412174
-0.10023081 -0.0056190286 -0.080033794
-0.099249803 -0.0061926334 -0.078926057
-0.098685957 -0.005921965 -0.07892026
-0.12019584 -0.017589619 -0.076768786
-0.12126879 -0.0136669 -0.081449538
-0.12080305 -0.013184099 -0.081717521
-0.1202416 -0.012914584 -0.081711747
-0.11948739 -0.013071179 -0.081158221
-0.11863513 -0.013441547 -0.080329217
-0.1174885 -0.014455542 -0.078671217
-0.11663091 -0.014828824 -0.077836402
-0.11606641 -0.01455784 -0.077830598
-0.11540341 -0.014501628 -0.077548012
-0.11483869 -0.014230539 -0.077542208
-0.11427397 -0.01395945 -0.077536389
-0.11380842 -0.013473903 -0.077807359
-0.11324392 -0.013202918 -0.07780154
-0.11347348 -0.011223956 -0.080002256
-0.11281153 -0.011166625 -0.079721399
-0.11165039 -0.012176098 -0.078060687
-0.11108612 -0.011905219 -0.078054875
-0.11042143 -0.011847997 -0.077772491
-0.10975622 -0.01179073 -0.07748989
-0.10878702 -0.012375757 -0.076374732
-0.10801827 -0.012533093 -0.075812936
-0.10755407 -0.012046966 -0.07608521
-0.10647715 -0.012848503 -0.074686706
-0.10591022 -0.012576353 -0.074680872
-0.10534329 -0.012304203 -0.074675031
-0.10498238 -0.011602925 -0.075226933
-0.10544333 -0.0091964304 -0.077996798
-0.10528867 -0.0080767944 -0.079095237
-0.1060506 -0.0050673704 -0.08265467
-0.10549003 -0.0047982722 -0.082648896
-0.1046235 -0.0051581711 -0.081823558
-0.10406227 -0.0048887604 -0.081817776
-0.10350105 -0.0046193493 -0.081812002
-0.10293984 -0.0043499391 -0.081806228
-0.10237861 -0.0040805284 -0.081800446
-0.1011968 -0.0050703692 -0.080149733
-0.10042632 -0.005221176 -0.079593919
-0.099445619 -0.0057941619 -0.078485504
-0.098566964 -0.0061573265 -0.07765048
-0.11911052 -0.021601133 -0.071017601
-0.12029545 -0.0174063 -0.076049238
-0.12146384 -0.013269973 -0.081010699
-0.12099803 -0.012787325 -0.081278846
-0.12062848 -0.012092458 -0.081820294
-0.12006748 -0.011823151 -0.081814528
-0.11969894 -0.011129567 -0.082355149
-0.11913837 -0.010860469 -0.082349375
-0.11760813 -0.012717257 -0.079603106
-0.11694779 -0.012660507 -0.079322092
-0.11569796 -0.013887919 -0.077383719
-0.11513347 -0.013616934 -0.077377908
-0.11506215 -0.012276415 -0.078753605
-0.11508937 -0.010728618 -0.08039856
-0.11550773 -0.0083440887 -0.083127052
-0.11504565 -0.0078648338 -0.083393551
-0.11350192 -0.0097071333 -0.080655597
-0.11204591 -0.01135039 -0.078172632
-0.11128209 -0.011506437 -0.07761398
-0.11051707 -0.011662728 -0.077054463
-0.10954906 -0.012247555 -0.075938627
-0.1086795 -0.012619416 -0.075098008
-0.10780789 -0.01299215 -0.074255414
-0.10754697 -0.012075754 -0.075086348
-0.1069807 -0.011803922 -0.075080521
-0.10610711 -0.012175701 -0.074237905
-0.10554019 -0.01190355 -0.074232072
-0.10569234 -0.010133476 -0.076175727
-0.10584367 -0.0083730398 -0.078108795
-0.10680585 -0.0049403082 -0.082222439
-0.10624528 -0.00467121 -0.082216673
-0.10568471 -0.0044021118 -0.082210898
-0.10492039 -0.0045518759 -0.081658624
-0.10425719 -0.0044921404 -0.081379272
-0.10369596 -0.0042227292 -0.081373498
-0.10313474 -0.0039533186 -0.081367724
-0.10226446 -0.004312654 -0.080539927
-0.10139216 -0.0046728253 -0.079710208
-0.10051782 -0.0050338367 -0.078878544
-0.099432237 -0.0058179819 -0.077492021
-0.098131627 -0.0070295739 -0.075544104
-0.11930835 -0.021198591 -0.070572555
-0.11903265 -0.020268219 -0.071411736
-0.12089184 -0.01458283 -0.078371383
-0.12167073 -0.011328651 -0.082207501
-0.12158734 -0.01000237 -0.083563797
-0.12083708 -0.010156112 -0.083013847
-0.1204688 -0.0094654197 -0.083552286
-0.12019675 -0.0085654594 -0.084361278
-0.11982968 -0.007877321 -0.084897645
-0.11830862 -0.0097146844 -0.0821729
-0.11658034 -0.011992407 -0.078876428
-0.11621322 -0.011296269 -0.079421222
-0.11584667 -0.01060121 -0.079965167
-0.11577429 -0.0092722327 -0.081329994
-0.11570219 -0.0079483874 -0.082689561
-0.11533773 -0.0072591323 -0.083228461
-0.11468033 -0.0072006024 -0.08295048
-0.1126396 -0.010100673 -0.078835867
-0.11147806 -0.011107655 -0.077173091
-0.1107132 -0.011263636 -0.076613225
-0.10984635 -0.011633766 -0.075774707
-0.10867327 -0.012648674 -0.074097596
-0.10800479 -0.012591497 -0.073812447
-0.10753985 -0.012104587 -0.074085928
-0.10738125 -0.010975605 -0.075195193
-0.10681543 -0.010703987 -0.075189359
-0.10624962 -0.010432367 -0.075183541
-0.10660333 -0.0082452362 -0.077674046
-0.10665026 -0.0067056236 -0.079322793
-0.10700054 -0.0045441478 -0.08178445
-0.10643996 -0.0042750495 -0.081778675
-0.1058794 -0.0040059513 -0.081772901
-0.10501331 -0.0043649306 -0.080946542
-0.1044521 -0.0040955194 -0.080940768
-0.10378844 -0.0040355837 -0.080661036
-0.10312428 -0.0039756014 -0.080381081
-0.10245959 -0.0039155721 -0.080100916
-0.10158752 -0.0042752819 -0.079270683
-0.10071341 -0.0046358299 -0.078438513
-0.099628203 -0.0054191998 -0.077051125
-0.098117173 -0.0070544425 -0.074544825
-0.11903453 -0.020303624 -0.070403717
-0.12041293 -0.015688391 -0.075993314
-0.12177002 -0.011144542 -0.081496462
-0.12130498 -0.010663649 -0.081763908
-0.12103146 -0.0097605642 -0.082576521
-0.12066302 -0.0090701757 -0.083115302
-0.12029517 -0.0083808536 -0.083653249
-0.11973633 -0.0081125852 -0.083647497
-0.11917749 -0.0078443168 -0.083641753
-0.11794287 -0.0090496838 -0.0817293
-0.11640859 -0.010898725 -0.07898169
-0.11545349 -0.011480091 -0.077873193
-0.1154798 -0.0099341469 -0.079520188
-0.11570146 -0.0079737063 -0.081706233
-0.11514111 -0.0077047125 -0.081700459
-0.11369477 -0.0093365163 -0.079227895
-0.11243755 -0.010553447 -0.077291526
-0.11177391 -0.010495743 -0.077009067
-0.11110975 -0.010437995 -0.076726384
-0.1103446 -0.010593453 -0.076166175
-0.10947733 -0.0109628 -0.075327136
-0.10830338 -0.011976134 -0.073648974
-0.10814358 -0.010847352 -0.07475891
-0.10757776 -0.010575733 -0.074753091
-0.10701194 -0.010304115 -0.074747264
-0.10736299 -0.0081174336 -0.077239297
-0.10740815 -0.0065781181 -0.078889057
-0.10755408 -0.0048361681 -0.080805048
-0.10719521 -0.0041479878 -0.081346452
-0.10663465 -0.0038788894 -0.081340678
-0.10587107 -0.0040282486 -0.080787726
-0.10520822 -0.0039683101 -0.080508038
-0.10454486 -0.0039083245 -0.080228135
-0.10398343 -0.0036388098 -0.080222361
-0.10331934 -0.0035786736 -0.079942241
-0.10265473 -0.0035184908 -0.079661898
-0.10198962 -0.0034582613 -0.079381339
-0.10080505 -0.0044481903 -0.077722423
-0.099719606 -0.0052315001 -0.076333091
-0.097996995 -0.0072921449 -0.07326445
-0.11893837 -0.020558262 -0.069111414
-0.11905459 -0.018754715 -0.071079791
-0.12004419 -0.015017947 -0.075546086
-0.12130859 -0.010691089 -0.080779098
-0.12074781 -0.010421885 -0.080773331
-0.12037889 -0.0097296536 -0.081314541
-0.12010643 -0.00882765 -0.082127683
-0.11993041 -0.0077176462 -0.083210856
-0.1196592 -0.0068203979 -0.084019616
-0.119101 -0.0065524396 -0.084013872
-0.11757713 -0.0083846813 -0.081285708
-0.11564916 -0.01108193 -0.077432975
-0.1127996 -0.011278721 -0.075748183
-0.11253386 -0.010367891 -0.076574147
-0.11196981 -0.010097116 -0.076568343
-0.11140575 -0.0098263435 -0.076562539
-0.11094185 -0.0093429713 -0.076833561
-0.1106787 -0.0084358109 -0.077656984
-0.11051621 -0.0073195272 -0.078753814
-0.11015422 -0.0066278209 -0.079298064
-0.10959235 -0.0063580973 -0.079292282
-0.10903047 -0.0060883733 -0.079286501
-0.1084686 -0.0058186492 -0.079280719
-0.10820923 -0.0049187434 -0.08009842
-0.10774891 -0.0044397013 -0.080366716
-0.10728894 -0.0039610304 -0.080634803
-0.1066269 -0.0039010884 -0.08035516
-0.10596435 -0.0038411005 -0.080075309
-0.10540313 -0.0035716896 -0.080069534
-0.10484191 -0.0033022789 -0.08006376
-0.10428069 -0.0030328683 -0.080057986
-0.10371947 -0.0027634576 -0.080052204
-0.10295274 -0.0029121262 -0.079497613
-0.10187484 -0.0036900227 -0.078116044
-0.10068862 -0.0046816478 -0.076452233
-0.099706419 -0.0052549089 -0.075336762
-0.11854691 -0.02147316 -0.06696409
-0.11895859 -0.01900713 -0.069790311
-0.1194644 -0.01634397 -0.072874211
-0.11918993 -0.015424006 -0.073706448
-0.11949847 -0.013218545 -0.076203093
-0.11961195 -0.011453828 -0.078131594
-0.119821 -0.009487167 -0.080323614
-0.11983707 -0.0079529975 -0.081957318
-0.11956565 -0.0070544397 -0.082768463
-0.1196779 -0.0053225928 -0.084661491
-0.11931207 -0.0046385322 -0.085196398
-0.11923371 -0.0033332137 -0.086538643
-0.11199701 -0.013022438 -0.072518572
-0.11233126 -0.010821963 -0.075023279
-0.1121657 -0.0096984897 -0.076127626
-0.11200065 -0.0085785091 -0.077228539
-0.11193558 -0.0072508762 -0.078601316
-0.11167209 -0.0063489582 -0.079420127
-0.11101098 -0.0062898719 -0.079139702
-0.11034935 -0.0062307394 -0.078859046
-0.10978749 -0.0059610158 -0.078853264
-0.10922561 -0.0056912918 -0.078847483
-0.10866374 -0.0054215672 -0.078841701
-0.10840414 -0.0045221229 -0.079659909
-0.10794374 -0.004043235 -0.079928376
-0.10748369 -0.0035647168 -0.080196634
-0.10682173 -0.0035046218 -0.079916835
-0.10626073 -0.003235315 -0.079911053
-0.10569973 -0.0029660086 -0.079905279
-0.10513873 -0.0026967023 -0.079899505
-0.1044756 -0.0026362478 -0.079619475
-0.10360688 -0.0029940517 -0.078789651
-0.10263302 -0.0035624674 -0.077682137
-0.10196686 -0.0035021615 -0.077400379
-0.1007804 -0.0044937339 -0.075734243
-0.099168256 -0.0063379789 -0.072943889
-0.11921855 -0.021563826 -0.06623891
-0.11913831 -0.020190788 -0.06765385
-0.11915626 -0.018604904 -0.069345608
-0.11936919 -0.016592763 -0.071590878
-0.11909451 -0.01567143 -0.072425589
-0.11882047 -0.014752254 -0.073258348
-0.11913031 -0.012549145 -0.075756572
-0.11914807 -0.01099891 -0.077410415
-0.11935864 -0.0090328977 -0.079605527
-0.11966386 -0.0068691797 -0.082059555
-0.11996696 -0.0047204285 -0.08449661
-0.11988732 -0.0034144521 -0.085840717
-0.11952217 -0.0027334276 -0.086373478
-0.1187752 -0.0028805907 -0.085829273
-0.11222801 -0.011063518 -0.073746458
-0.11206241 -0.0099383565 -0.074854091
-0.11269289 -0.0071234694 -0.078167923
-0.1124285 -0.0062216986 -0.078987233
-0.11196637 -0.0057419674 -0.079256065
-0.11130563 -0.0056826686 -0.078975677
-0.11054449 -0.0058336584 -0.078420036
-0.10998261 -0.0055639343 -0.078414254
-0.10942075 -0.0052942098 -0.078408472
-0.10885887 -0.0050244862 -0.078402691
-0.108297 -0.0047547622 -0.078396901
-0.10823924 -0.0034376057 -0.079764247
-0.10767846 -0.0031684032 -0.079758465
-0.10711767 -0.0028992009 -0.079752699
-0.10645556 -0.0028388484 -0.079472721
-0.10589456 -0.0025695418 -0.079466939
-0.10523172 -0.0025090382 -0.079186745
-0.10446617 -0.0026575101 -0.078631483
-0.10349403 -0.0032251829 -0.077524155
-0.10282845 -0.0031647692 -0.077242441
-0.10216237 -0.0031043089 -0.076960512
-0.10076804 -0.0045165592 -0.074737839
-0.099259831 -0.0061499043 -0.072221443
-0.097422093 -0.0084367674 -0.068840533
-0.11931887 -0.02138005 -0.065507263
-0.1192384 -0.020006834 -0.066924192
-0.11915823 -0.018639015 -0.068335563
-0.11946882 -0.016408412 -0.070866778
-0.11899886 -0.015919436 -0.071141735
-0.11862698 -0.015214782 -0.071696833
-0.11874343 -0.013435668 -0.073647402
-0.11876214 -0.011879745 -0.075310037
-0.11878076 -0.010331069 -0.07696493
-0.11899247 -0.0083671249 -0.079161413
-0.11958678 -0.0055779321 -0.082433648
-0.11960333 -0.0040592602 -0.084055573
-0.11961979 -0.0025475763 -0.085670039
-0.11906395 -0.0022807482 -0.085664317
-0.11850811 -0.0020139196 -0.085658602
-0.11185883 -0.010392291 -0.073298715
-0.11328372 -0.0058841682 -0.07882911
-0.1127225 -0.0056147575 -0.078823335
-0.11216128 -0.0053453469 -0.078817561
-0.11150062 -0.005285895 -0.078537002
-0.11073963 -0.0054365764 -0.077981018
-0.11017775 -0.0051668524 -0.077975236
-0.10961588 -0.0048971288 -0.077969454
-0.10905401 -0.0046274047 -0.077963665
-0.10849214 -0.0043576807 -0.077957883
-0.10863495 -0.0026237587 -0.079874173
-0.10797395 -0.0025633464 -0.079594463
-0.10741337 -0.0022942484 -0.079588689
-0.10675164 -0.002233685 -0.079308763
-0.10598785 -0.0023818286 -0.078754023
-0.1053248 -0.0023212291 -0.078473434
-0.10414939 -0.0033073567 -0.076814331
-0.10358664 -0.003037214 -0.076808542
-0.10292085 -0.0029767042 -0.076526433
-0.10184036 -0.003756542 -0.075135864
-0.10096417 -0.004117467 -0.074296601
-0.099351481 -0.0059616826 -0.071498439
-0.097726136 -0.007820379 -0.068678297
-0.096943855 -0.0079751248 -0.06810692
-0.11951746 -0.020975919 -0.065060452
-0.1194366 -0.0196035 -0.066478275
-0.11925818 -0.01845474 -0.067607336
-0.11937347 -0.016657671 -0.069579072
-0.11900072 -0.015951335 -0.070136264
-0.11853077 -0.015462348 -0.070411615
-0.11864759 -0.013680473 -0.072367981
-0.11856925 -0.012336174 -0.073757194
-0.11839397 -0.011210346 -0.074863508
-0.11851045 -0.009451082 -0.076795638
-0.1186263 -0.0077013508 -0.078717306
-0.11922231 -0.0049152356 -0.081991583
-0.11914391 -0.0036058724 -0.083343603
-0.11858657 -0.003338326 -0.083337866
-0.11812545 -0.0028632053 -0.083603069
-0.11708546 -0.0036347175 -0.082240574
-0.11403985 -0.0057569584 -0.078396387
-0.11377432 -0.0048581688 -0.079214163
-0.11321376 -0.0045890701 -0.079208396
-0.11265318 -0.0043199719 -0.079202622
-0.11179497 -0.0046793157 -0.078373276
-0.11123375 -0.0044099051 -0.078367501
-0.11037289 -0.0047697709 -0.077536218
-0.10981102 -0.0045000473 -0.077530436
-0.10924914 -0.0042303228 -0.077524647
-0.10898887 -0.0033322619 -0.078344397
-0.10872919 -0.0024362844 -0.07916224
-0.10816863 -0.0021671862 -0.079156466
-0.10750718 -0.0021065739 -0.078876369
-0.10674399 -0.0022546188 -0.078321286
-0.10608122 -0.0021939699 -0.07804054
-0.10521404 -0.002551398 -0.077208556
-0.10434482 -0.0029096587 -0.076374635
-0.10378208 -0.0026395158 -0.076368846
-0.10291018 -0.0029982969 -0.075532965
-0.101725 -0.0039894646 -0.073861174
-0.10084765 -0.0043510841 -0.07301943
-0.09933795 -0.0059857639 -0.070494026
-0.098029941 -0.0072044735 -0.068516187
-0.097248197 -0.0073586744 -0.067944914
-0.11961793 -0.020791842 -0.06432806
-0.11924249 -0.020077512 -0.064893126
-0.1191622 -0.018707398 -0.066310711
-0.11937562 -0.0166902 -0.068570793
-0.11900257 -0.015983285 -0.069129221
-0.11853224 -0.015493902 -0.069405176
-0.11835606 -0.014356966 -0.070524357
-0.11837575 -0.012794027 -0.072199501
-0.11820051 -0.011665731 -0.073309965
-0.11812317 -0.010327963 -0.074694648
-0.11814329 -0.0087835006 -0.076350324
-0.1181633 -0.0072462135 -0.07799831
-0.11866546 -0.00466988 -0.081004627
-0.11868414 -0.0031521358 -0.082631096
-0.1182228 -0.0026769037 -0.082896657
-0.11727932 -0.0032402351 -0.081804439
-0.11584601 -0.0048502092 -0.079341784
-0.11509014 -0.0050002048 -0.078787707
-0.11472574 -0.0043124291 -0.079330243
-0.11455788 -0.0032085367 -0.080418579
-0.11380219 -0.0033570325 -0.079866186
-0.11284787 -0.0039238115 -0.078764625
-0.11198988 -0.0042826952 -0.077934779
-0.11122956 -0.0044325413 -0.077378541
-0.11056802 -0.0043726899 -0.077097207
-0.11000615 -0.0041029654 -0.077091426
-0.10944428 -0.0038332415 -0.077085637
-0.10918377 -0.0029356414 -0.077905893
-0.10872307 -0.0024573673 -0.078175031
-0.10816207 -0.0021880604 -0.078169256
-0.10750011 -0.0021274094 -0.077888556
-0.10683765 -0.0020667112 -0.077607647
-0.10597134 -0.0024239912 -0.076775156
-0.105103 -0.0027821036 -0.075940728
-0.10454026 -0.0025119607 -0.075934939
-0.10377209 -0.0026608384 -0.075375631
-0.10279621 -0.0032300625 -0.07426022
-0.10160938 -0.0042229318 -0.072583497
-0.10062631 -0.0047968198 -0.071459368
-0.099534996 -0.0055847974 -0.070050724
-0.098439395 -0.0063758651 -0.068636544
-0.097658589 -0.006529294 -0.068065815
-0.11991467 -0.02016766 -0.064166836
-0.11944101 -0.019673539 -0.064446494
-0.11896773 -0.019179808 -0.064725928
-0.11937776 -0.016722782 -0.067560934
-0.11900442 -0.016015287 -0.068120591
-0.11853372 -0.015525507 -0.068397157
-0.11796524 -0.015252611 -0.068391308
-0.11847471 -0.012608694 -0.071477607
-0.11790868 -0.012336969 -0.071471788
-0.11792937 -0.010781796 -0.073141448
-0.11775516 -0.0096588228 -0.074248292
-0.11767885 -0.0083275475 -0.075628467
-0.11760283 -0.0070014279 -0.077003278
-0.11723577 -0.0063107717 -0.077548258
-0.11696654 -0.005411339 -0.078367017
-0.11640597 -0.0051422408 -0.07836125
-0.1158454 -0.0048731426 -0.078355484
-0.11548041 -0.0041854647 -0.078898355
-0.11531138 -0.0030817685 -0.079987347
-0.11475212 -0.0028132931 -0.079981588
-0.11419285 -0.002544818 -0.079975836
-0.11304255 -0.0035276515 -0.078326628
-0.11218479 -0.003886075 -0.077496268
-0.11122537 -0.004455213 -0.076388039
-0.11026296 -0.0050261188 -0.075276367
-0.110001 -0.0041253902 -0.07610032
-0.10963941 -0.00343616 -0.076646619
-0.10937869 -0.0025390212 -0.077467382
-0.10891791 -0.0020609002 -0.077736706
-0.10825624 -0.0020001999 -0.077455834
-0.10729072 -0.002566413 -0.076347545
-0.10672864 -0.0022965844 -0.076341756
-0.10586119 -0.0026545483 -0.075506829
-0.10529844 -0.0023844054 -0.075501032
-0.10463332 -0.0023236419 -0.075218424
-0.10376208 -0.0026821939 -0.074380882
-0.10257843 -0.0036730086 -0.072705738
-0.10170173 -0.0040343991 -0.071862318
-0.10071842 -0.0046082167 -0.070736624
-0.099416241 -0.0058212383 -0.068762556
-0.098636828 -0.0059741121 -0.06819237
-0.097749978 -0.0063404827 -0.067338333
-0.11942586 -0.0213053 -0.061713696
-0.11944322 -0.019708643 -0.063428201
-0.11906791 -0.018995164 -0.063993983
-0.11928204 -0.016973099 -0.066265792
-0.11920193 -0.015613376 -0.067676239
-0.11873116 -0.015123755 -0.067952983
-0.11826075 -0.014634516 -0.068229504
-0.11837846 -0.012852818 -0.070194148
-0.1180075 -0.012151386 -0.070749328
-0.11773495 -0.011237046 -0.071583398
-0.11775602 -0.0096856505 -0.073251501
-0.11738714 -0.0089896834 -0.073801935
-0.11682329 -0.0087190149 -0.073796138
-0.11694399 -0.0069671995 -0.075730413
-0.11657702 -0.0062757665 -0.07627701
-0.11630823 -0.0053753299 -0.077098198
-0.11574702 -0.0051059187 -0.077092424
-0.11547951 -0.004207884 -0.077911712
-0.11521263 -0.0033119302 -0.078729108
-0.11494635 -0.0024180501 -0.079544611
-0.11409278 -0.0027743573 -0.078717582
-0.11294091 -0.0037588654 -0.077063538
-0.1115844 -0.0051687616 -0.074848093
-0.11102144 -0.0048985141 -0.074842289
-0.10935201 -0.0069521046 -0.071775645
-0.10898896 -0.0062569114 -0.072328299
-0.10943311 -0.0038777068 -0.075101882
-0.10927267 -0.0027693545 -0.076201826
-0.1087108 -0.0024996304 -0.076196045
-0.107846 -0.0028576918 -0.075361267
-0.1068776 -0.0034265583 -0.074247129
-0.10611034 -0.0035763211 -0.07368587
-0.10564869 -0.0030955663 -0.073957905
-0.10508507 -0.0028250034 -0.073952109
-0.10452145 -0.0025544404 -0.073946305
-0.10344281 -0.0033343672 -0.07254909
-0.10267109 -0.0034844084 -0.071985185
-0.10189816 -0.0036346838 -0.071420394
-0.10091516 -0.0042078765 -0.070294015
-0.099402741 -0.0058452561 -0.067754038
-0.098516792 -0.006211475 -0.066899493
-0.097628757 -0.0065785577 -0.066042922
-0.1196419 -0.019304354 -0.062981218
-0.11916817 -0.018810377 -0.063261449
-0.11947993 -0.016570399 -0.065820567
-0.11949707 -0.014994899 -0.067514651
-0.11902637 -0.01450571 -0.06779135
-0.11865388 -0.013801061 -0.068349943
-0.11857527 -0.012452321 -0.069751352
-0.11800857 -0.012180277 -0.069745518
-0.1176379 -0.01147937 -0.070301056
-0.11746367 -0.010352244 -0.07141535
-0.11738772 -0.0090159914 -0.072804801
-0.11682344 -0.0087451125 -0.07279899
-0.11625917 -0.0084742326 -0.072793186
-0.11638148 -0.006721722 -0.074731693
-0.11601467 -0.0060299435 -0.075279482
-0.11555042 -0.0055495421 -0.075550169
-0.11498833 -0.0052797133 -0.07554438
-0.11462302 -0.0045898557 -0.076090902
-0.11465116 -0.0030646711 -0.077736944
-0.11369704 -0.0036316556 -0.076630816
-0.11234288 -0.0050411569 -0.074414015
-0.11098028 -0.0064594429 -0.072183408
-0.11021443 -0.0066119209 -0.07161922
-0.10934632 -0.0069768936 -0.07077419
-0.10857771 -0.0071300729 -0.070207804
-0.10831618 -0.0062216111 -0.0710425
-0.10906579 -0.0032098661 -0.074656397
-0.10850305 -0.0029397232 -0.074650593
-0.10661939 -0.0054070721 -0.071025036
-0.10625832 -0.0047128126 -0.071578495
-0.10579553 -0.0042304909 -0.071851999
-0.10533309 -0.0037485445 -0.072125286
-0.10476837 -0.0034774547 -0.072119467
-0.10420366 -0.0032063646 -0.072113656
-0.10343253 -0.0033563063 -0.071549416
-0.10276382 -0.0032956612 -0.071264051
-0.10209459 -0.003234969 -0.07097847
-0.10090286 -0.0042305673 -0.069289453
-0.098966293 -0.0067229387 -0.065609418
-0.098184064 -0.0068770032 -0.065034956
-0.097507238 -0.0068171951 -0.06474445
-0.11936677 -0.018406248 -0.062814645
-0.11977555 -0.01595033 -0.065659396
-0.11979198 -0.014376906 -0.067353196
-0.11922371 -0.014104116 -0.06734734
-0.11914393 -0.012753728 -0.068751819
-0.11857679 -0.012481472 -0.068745971
-0.11800964 -0.012209214 -0.068740137
-0.11763868 -0.011507737 -0.069296896
-0.11746431 -0.010379686 -0.070413627
-0.11709464 -0.009681277 -0.070967779
-0.11682358 -0.0087712491 -0.071800292
-0.11625887 -0.0085001597 -0.07179448
-0.11579254 -0.008016739 -0.072067678
-0.11571994 -0.006687101 -0.073453695
-0.11545143 -0.0057837386 -0.074280411
-0.11498705 -0.0053030602 -0.074551687
-0.11462145 -0.0046126493 -0.075099409
-0.11405936 -0.0043428205 -0.075093627
-0.11339841 -0.0042828876 -0.07481119
-0.11214037 -0.005486059 -0.072862804
-0.1111764 -0.0060603507 -0.07174217
-0.11010865 -0.0068486407 -0.070337921
-0.10842678 -0.0089211045 -0.067236215
-0.1062143 -0.01209248 -0.062679268
-0.10564245 -0.011817968 -0.062673382
-0.1054854 -0.010679211 -0.063810669
-0.1071776 -0.0057023889 -0.070028447
-0.10661156 -0.0054306639 -0.07002262
-0.1061479 -0.0049473089 -0.070297159
-0.10588943 -0.0040421076 -0.071131103
-0.10532428 -0.0037708064 -0.071125284
-0.10475912 -0.0034995053 -0.071119472
-0.10409093 -0.0034389161 -0.070833936
-0.10352555 -0.0031675089 -0.070828117
-0.10296017 -0.0028961019 -0.070822299
-0.10187511 -0.0036791344 -0.069414601
-0.10015573 -0.0057403557 -0.066305265
-0.098527789 -0.0076047704 -0.063454665
-0.097743362 -0.0077598947 -0.062877141
-0.096743315 -0.0083457157 -0.061725255
-0.12005513 -0.016909523 -0.063796826
-0.12026583 -0.014897179 -0.066065691
-0.11998934 -0.013975309 -0.066909187
-0.11942107 -0.013702519 -0.066903345
-0.1193409 -0.012352917 -0.068308681
-0.11877376 -0.012080662 -0.06830284
-0.11820661 -0.011808405 -0.068296999
-0.11773751 -0.011321611 -0.068572745
-0.11746496 -0.010407172 -0.069410339
-0.11699688 -0.0099216849 -0.069685221
-0.11652917 -0.0094365776 -0.069959886
-0.11635681 -0.0083135134 -0.071073845
-0.11579188 -0.0080423187 -0.071068034
-0.11522694 -0.0077711227 -0.071062215
-0.11466199 -0.0074999272 -0.071056396
-0.11419611 -0.0070167072 -0.071329996
-0.1144228 -0.0050561954 -0.07355167
-0.11385983 -0.0047859475 -0.073545866
-0.11290003 -0.0053582559 -0.072428048
-0.11193724 -0.0059323483 -0.07130675
-0.11117213 -0.0060844151 -0.070741877
-0.10949682 -0.0081511522 -0.067645542
-0.10780703 -0.01023577 -0.064522445
-0.10610253 -0.012338497 -0.061372198
-0.10396727 -0.012381947 -0.060204305
-0.10650139 -0.0056663691 -0.068737447
-0.10613971 -0.004970551 -0.069293767
-0.10567606 -0.0044871871 -0.069568694
-0.10541803 -0.0035821707 -0.070403822
-0.10464695 -0.0037325812 -0.069837585
-0.10397793 -0.0036720121 -0.069551215
-0.10310116 -0.0040341076 -0.068702452
-0.10253446 -0.003762064 -0.068696618
-0.10092224 -0.0056113987 -0.06586659
-0.099931911 -0.0061910786 -0.064724833
-0.098513506 -0.0076303277 -0.062436398
-0.097835205 -0.0075706751 -0.062144175
-0.12017119 -0.015145247 -0.06476929
-0.11989448 -0.014222 -0.065615304
-0.11952088 -0.013516743 -0.066176265
-0.11895239 -0.013243846 -0.066170409
-0.11867767 -0.012324642 -0.067013122
-0.11830574 -0.011622251 -0.067571893
-0.11773837 -0.011349888 -0.067566045
-0.11766161 -0.010006988 -0.068967894
-0.11709535 -0.0097351577 -0.068962067
-0.11662742 -0.0092499331 -0.06923712
-0.11606139 -0.0089782085 -0.069231294
-0.11588968 -0.0078554219 -0.070346825
-0.11542314 -0.007371875 -0.070620805
-0.11475937 -0.0073128189 -0.070335187
-0.11419421 -0.0070415176 -0.070329376
-0.11382751 -0.0063465256 -0.070882939
-0.11365969 -0.0052304524 -0.071993299
-0.11279764 -0.005592959 -0.07115069
-0.11213336 -0.0055332561 -0.070865512
-0.11026154 -0.0080224993 -0.06720791
-0.10938974 -0.0083907042 -0.066354059
-0.10800499 -0.0098329103 -0.064077042
-0.10479198 -0.010676745 -0.06148129
-0.10577431 -0.007180634 -0.065752476
-0.10602894 -0.0052058082 -0.068007238
-0.10577011 -0.0042985361 -0.068845496
-0.10520384 -0.0040267054 -0.068839677
-0.10432816 -0.0043893587 -0.067989737
-0.10345043 -0.0047528637 -0.0671378
-0.10257062 -0.0051172236 -0.066283867
-0.10168875 -0.0054824417 -0.065427914
-0.10069963 -0.006061919 -0.064285472
-0.10012981 -0.0057883789 -0.064279608
-0.098924518 -0.0067974664 -0.062562108
-0.11854267 -0.015716178 -0.062315714
-0.11875828 -0.013706003 -0.064591013
-0.11858135 -0.012569197 -0.065720379
-0.11830705 -0.011650785 -0.066563621
-0.11773924 -0.011378208 -0.06655778
-0.11736805 -0.010676557 -0.067116901
-0.1171939 -0.0095484834 -0.068238348
-0.11672575 -0.0090631424 -0.068513796
-0.11625797 -0.0085781813 -0.068789028
-0.11569192 -0.0083064567 -0.068783194
-0.11512589 -0.0080347313 -0.068777375
-0.11455984 -0.0077630063 -0.068771549
-0.1141923 -0.0070663667 -0.069327191
-0.11382533 -0.0063708131 -0.069881976
-0.11335958 -0.0058878451 -0.070156135
-0.1128942 -0.0054052533 -0.070430085
-0.11162939 -0.0066166637 -0.068461344
-0.11045866 -0.0076213754 -0.066764429
-0.10877302 -0.0097037014 -0.063637502
-0.10820296 -0.0094300527 -0.063631639
-0.1074277 -0.0095863082 -0.063055389
-0.10499066 -0.010272456 -0.061034303
-0.10586885 -0.006992152 -0.065024383
-0.10571224 -0.005866759 -0.066152193
-0.10535032 -0.005169149 -0.066711843
-0.10478274 -0.0048966794 -0.066706002
-0.10411168 -0.0048363763 -0.066417515
-0.10333624 -0.0049884184 -0.065845713
-0.10245527 -0.0053534848 -0.064989254
-0.10157222 -0.0057194117 -0.064130768
-0.10089753 -0.0056592189 -0.063840248
-0.10032771 -0.0053856783 -0.063834384
-0.099652253 -0.0053253304 -0.063543625
-0.11895602 -0.01330362 -0.064146131
-0.11877878 -0.012167444 -0.065276198
-0.11821029 -0.011894546 -0.065270349
-0.11754345 -0.011836894 -0.064980842
-0.11717184 -0.011133784 -0.06554208
-0.11699772 -0.010003228 -0.06666775
-0.11652891 -0.0095169498 -0.066944234
-0.11625767 -0.0086042704 -0.067784071
-0.11569118 -0.0083323326 -0.067778245
-0.1151247 -0.0080603948 -0.067772411
-0.11465736 -0.0075756353 -0.068048038
-0.11438873 -0.0066666515 -0.068885267
-0.1139224 -0.0061831912 -0.069160029
-0.11335702 -0.0059117842 -0.06915421
-0.11269193 -0.0058521125 -0.068867803
-0.11142458 -0.0070666419 -0.0668917
-0.11075664 -0.0070072357 -0.066603519
-0.10876682 -0.0097308597 -0.062621377
-0.10799139 -0.0098874755 -0.062043883
-0.10731763 -0.0098287817 -0.061751854
-0.10518934 -0.0098681673 -0.060587317
-0.10586038 -0.0070171282 -0.064011343
-0.10580663 -0.0056779832 -0.065425105
-0.10523837 -0.0054051932 -0.065419249
-0.10477345 -0.0049199541 -0.065696664
-0.10410185 -0.0048596133 -0.065407552
-0.10342974 -0.0047992249 -0.065118216
-0.10254853 -0.0051642116 -0.064260557
-0.10145541 -0.0059569413 -0.062830552
-0.10088514 -0.0056831855 -0.062824681
-0.1005256 -0.0049829776 -0.063389152
-0.099109061 -0.0064184163 -0.061096501
-0.11836823 -0.014634687 -0.061417274
-0.11868247 -0.012412101 -0.063979886
-0.11811331 -0.012138883 -0.06397403
-0.11754416 -0.011865664 -0.063968167
-0.11697501 -0.011592446 -0.063962311
-0.11680093 -0.010459398 -0.065092221
-0.1166274 -0.0093298992 -0.0662186
-0.11625737 -0.0086303987 -0.06677755
-0.11578922 -0.008145038 -0.06705378
-0.11532144 -0.0076600551 -0.067329794
-0.11475495 -0.0073881177 -0.06732396
-0.1144861 -0.0064789988 -0.068162367
-0.11401956 -0.0059954235 -0.068437517
-0.11345395 -0.0057239104 -0.06843169
-0.11258897 -0.0060881274 -0.067582272
-0.11162155 -0.0066658319 -0.066448562
-0.11095369 -0.0066062687 -0.066160202
-0.10876062 -0.0097580617 -0.061603658
-0.10808717 -0.0096993176 -0.061311454
-0.10605812 -0.0066147442 -0.063566469
-0.1059011 -0.0054890597 -0.064697444
-0.10543573 -0.0050035981 -0.064975239
-0.10486747 -0.0047308076 -0.064969398
-0.10419565 -0.004670369 -0.064679883
-0.10352331 -0.0046098828 -0.064390153
-0.10264187 -0.0049747895 -0.063531302
-0.10133833 -0.0061950316 -0.06152726
-0.10023937 -0.0069922977 -0.060087342
-0.099561222 -0.0069323457 -0.059793964
-0.098882541 -0.0068723471 -0.059500355
-0.11670639 -0.016793642 -0.057220452
-0.11772053 -0.013032462 -0.061817955
-0.11774182 -0.011463438 -0.063523471
-0.11717267 -0.01119022 -0.063517608
-0.11699829 -0.010057803 -0.064648218
-0.11643002 -0.0097850133 -0.06464237
-0.11625707 -0.0086565698 -0.065769449
-0.11588734 -0.0079575954 -0.066328749
-0.11551818 -0.0072597149 -0.066887178
-0.11505068 -0.0067752679 -0.067163147
-0.11448442 -0.0065034372 -0.067157321
-0.11421598 -0.0055957083 -0.067995593
-0.11335189 -0.0059597748 -0.067145661
-0.11258581 -0.0061122794 -0.066575989
-0.11181852 -0.0062650228 -0.066005431
-0.11074742 -0.0070571131 -0.064583875
-0.10895891 -0.0093545681 -0.061157554
-0.10672247 -0.0066992505 -0.062842511
-0.1064616 -0.0057859477 -0.063690796
-0.10589267 -0.0055128364 -0.06368494
-0.10542694 -0.005026984 -0.063963361
-0.10496157 -0.0045415135 -0.064241558
-0.10418588 -0.004693503 -0.063667372
-0.10340899 -0.0048457319 -0.063092284
-0.10210756 -0.0060656182 -0.061087035
-0.10101012 -0.0068626283 -0.059646249
-0.10001445 -0.0074474942 -0.058488339
-0.098908961 -0.0082500819 -0.057037268
-0.098013632 -0.0086227907 -0.056161501
-0.11560444 -0.019251969 -0.052986134
-0.11633167 -0.016112315 -0.056765966
-0.11734816 -0.012355422 -0.061366331
-0.11737033 -0.010787995 -0.063072905
-0.11689991 -0.010299881 -0.063351676
-0.11662737 -0.0093834177 -0.064198367
-0.11605911 -0.0091106277 -0.064192511
-0.11588674 -0.0079832394 -0.065320298
-0.1155173 -0.0072847931 -0.065879948
-0.11524734 -0.0063750851 -0.066720702
-0.11468107 -0.0061032539 -0.066714875
-0.11421409 -0.0056194472 -0.066990808
