# .PCD v0.7 - Point Cloud Data file format
VERSION 0.7
FIELDS x y z
SIZE 4 4 4
TYPE F F F
COUNT 1 1 1
WIDTH 1230
HEIGHT 1
VIEWPOINT 0 0 0 1 0 0 0
POINTS 1230
DATA ascii
-0.11036708 -0.0025313955 -0.021756897
-0.10967769 -0.0024682877 -0.021441413
-0.10867309 -0.0030595257 -0.020195026
-0.10808691 -0.0027781322 -0.020188993
-0.10728959 -0.0029334307 -0.019561263
-0.10670292 -0.0026518097 -0.019555226
-0.10590384 -0.0028071315 -0.018926471
-0.1054232 -0.0023068364 -0.019231914
-0.10494296 -0.0018069462 -0.01953711
-0.10424942 -0.0017433662 -0.019219832
-0.10344802 -0.0018980149 -0.018590553
-0.10286065 -0.0016160515 -0.018584508
-0.10238105 -0.0011160362 -0.018890213
-0.10200968 -0.00039884067 -0.019506918
-0.10206962 0.0011839194 -0.021363106
-0.10169971 0.0018969453 -0.021975826
-0.1012227 0.0023933265 -0.022278808
-0.10074609 0.0028893074 -0.022581546
-0.10026985 0.0033848891 -0.022884039
-0.099469125 0.0032351238 -0.022260759
-0.098775886 0.0033005071 -0.021945732
-0.097754486 0.0027190691 -0.020701168
-0.096839651 0.0023521329 -0.019763593
-0.095701739 0.001550538 -0.018199932
-0.094781443 0.0011809878 -0.017256267
-0.093635634 0.00037440387 -0.015682422
-0.092260137 -0.00087386102 -0.013470689
-0.090422057 -0.0030127876 -0.0099729756
-0.089256495 -0.003835594 -0.0083693238
-0.11350843 -0.012750523 -0.010696901
-0.11426686 -0.0095583787 -0.014805072
-0.11378048 -0.0090528959 -0.015113682
-0.11319073 -0.0087697851 -0.015107611
-0.11322377 -0.0071582929 -0.016984304
-0.11284285 -0.0064347433 -0.017603805
-0.11266975 -0.0052728937 -0.018845839
-0.11249723 -0.0041148015 -0.020083856
-0.11242853 -0.002742619 -0.021627264
-0.11184376 -0.0024619068 -0.021621246
-0.11115525 -0.0023987961 -0.021305833
-0.11046617 -0.0023356348 -0.020990167
-0.1095675 -0.0027084032 -0.020053701
-0.10887667 -0.0026452646 -0.019737018
-0.10829048 -0.0023638713 -0.019730985
-0.10749333 -0.0025188345 -0.019102884
-0.10690667 -0.0022372133 -0.019096846
-0.10632002 -0.0019555923 -0.019090807
-0.1058396 -0.0014560464 -0.019395934
-0.10504014 -0.0016103373 -0.018767308
-0.10413232 -0.0019832815 -0.017825481
-0.1035447 -0.0017012039 -0.017819433
-0.10284947 -0.0016374778 -0.017500946
-0.10247727 -0.00091898796 -0.018119525
-0.10221343 1.5755531e-05 -0.019048538
-0.10195021 0.00094823225 -0.019975297
-0.10190278 0.0023102036 -0.021518927
-0.1015333 0.0030217466 -0.022131028
-0.10105675 0.0035172747 -0.022433702
-0.1004727 0.003797648 -0.022427691
-0.099346705 0.0030022063 -0.020875718
-0.098761469 0.0032831454 -0.020869697
-0.097629741 0.0024850545 -0.019311434
-0.096933514 0.0025503456 -0.018994194
-0.095905811 0.0019658064 -0.017740808
-0.094874769 0.0013793687 -0.016483353
-0.09361691 0.00035451926 -0.014592528
-0.092577934 -0.00023693626 -0.013324812
-0.090628304 -0.0025930963 -0.0095089637
-0.11371442 -0.012331348 -0.010233458
-0.11426494 -0.0095863715 -0.013713575
-0.11377816 -0.009080464 -0.014022881
-0.11318792 -0.008797124 -0.014016805
-0.11270177 -0.0082917446 -0.014325863
-0.1123202 -0.0075652134 -0.014949289
-0.11235534 -0.0059573064 -0.016825605
-0.11239032 -0.0043572071 -0.01869281
-0.11221831 -0.0032010623 -0.019930575
-0.11194342 -0.0022661965 -0.020854771
-0.11125465 -0.0022029816 -0.020538922
-0.11035694 -0.0025755891 -0.019601908
-0.109771 -0.0022943097 -0.019595876
-0.10908025 -0.0022310037 -0.019279009
-0.1085991 -0.0017317503 -0.019583816
-0.10801316 -0.0014504706 -0.019577786
-0.1073217 -0.0013868236 -0.019260909
-0.10673552 -0.0011054303 -0.019254874
-0.10646704 -0.00017234834 -0.020180637
-0.10588157 0.00010870411 -0.020174609
-0.10465707 -0.0009138381 -0.018302703
-0.103856 -0.0010678147 -0.017672682
-0.10316117 -0.0010038577 -0.017354263
-0.10278887 -0.00028617214 -0.017972711
-0.10241716 0.00043035173 -0.01859016
-0.10215371 0.0013623257 -0.019517476
-0.10210587 0.0027234619 -0.021062028
-0.10162871 0.0032195097 -0.021365376
-0.10115193 0.003715158 -0.021668483
-0.10024343 0.0033503161 -0.020734346
-0.099549949 0.0034157985 -0.02041845
-0.098419815 0.0026179757 -0.018859277
-0.09761434 0.0024669834 -0.018230215
-0.097027451 0.0027487185 -0.018224174
-0.096109889 0.0023810747 -0.017281687
-0.095079169 0.0017953113 -0.016023485
-0.09359815 0.00033460226 -0.013500858
-0.092670783 -3.8243841e-05 -0.012546827
-0.09072081 -0.0023943924 -0.0087255891
-0.11392041 -0.011912172 -0.0097700153
-0.11374401 -0.010730932 -0.01103601
-0.11387953 -0.0088856174 -0.013246132
-0.11328905 -0.00860216 -0.013240054
-0.11280267 -0.0080966549 -0.013549552
-0.11242085 -0.0073699867 -0.014173864
-0.11214381 -0.0064235819 -0.01511146
-0.11207547 -0.0050394856 -0.016673086
-0.11200741 -0.0036609899 -0.018228393
-0.11173232 -0.002724055 -0.019156147
-0.11114638 -0.0024427755 -0.019150116
-0.11056043 -0.0021614956 -0.019144084
-0.10987 -0.0020981361 -0.018827034
-0.10938855 -0.0015989365 -0.019132024
-0.10880259 -0.0013176568 -0.019125992
-0.10821665 -0.0010363772 -0.019119961
-0.10773605 -0.00053780817 -0.019424709
-0.10725585 -3.9641774e-05 -0.01972921
-0.10698707 0.00089102139 -0.020653276
-0.10671894 0.0018194349 -0.02157511
-0.10666208 0.003175274 -0.023110555
-0.10512659 0.0015171361 -0.020325432
-0.1035799 -0.00015308938 -0.017520005
-0.10299277 0.00012875986 -0.017513962
-0.1026209 0.00084494794 -0.018131781
-0.10224964 0.0015599777 -0.0187486
-0.10220159 0.0029212644 -0.020295326
-0.10183171 0.0036326018 -0.020908661
-0.10124718 0.0039132009 -0.020902643
-0.1004466 0.0037637413 -0.020277262
-0.099427484 0.0031828175 -0.019029496
-0.098514311 0.0028162959 -0.018089512
-0.097818166 0.0028817474 -0.01777165
-0.097011559 0.0027308464 -0.017141197
-0.096093222 0.0023628827 -0.016196627
-0.094616711 0.00090521039 -0.013676618
-0.093803219 0.00075190031 -0.013039493
-0.092538632 -0.00027783378 -0.011134055
-0.090927139 -0.0019745291 -0.0082613872
-0.11391819 -0.011942239 -0.0086685857
-0.11394966 -0.010312441 -0.010573324
-0.11398098 -0.0086906105 -0.012468749
-0.11349412 -0.0081848633 -0.012778687
-0.11290364 -0.0079014059 -0.012772609
-0.11231317 -0.00761795 -0.012766532
-0.11203592 -0.0066700871 -0.013706991
-0.11175933 -0.0057245358 -0.014645156
-0.11158765 -0.0045614825 -0.01589451
-0.11162449 -0.0029647727 -0.017763976
-0.11103784 -0.0026831515 -0.017757937
-0.11045118 -0.0024015305 -0.0177519
-0.10975987 -0.002338191 -0.017433899
-0.10938267 -0.001620297 -0.018051533
-0.10879625 -0.0013387897 -0.018045498
-0.10831504 -0.00083969516 -0.018350925
-0.10772885 -0.00055830181 -0.018344892
-0.10745917 0.00037411725 -0.019271756
-0.10750584 0.0019518206 -0.021124773
-0.10755226 0.0035219153 -0.022968853
-0.10707464 0.0040158485 -0.023270341
-0.10628163 0.0038670124 -0.022649126
-0.10474476 0.0022113868 -0.019862326
-0.10319669 0.00054369186 -0.01705521
-0.10250187 0.00060827582 -0.016736671
-0.10223799 0.0015411653 -0.017667362
-0.10197476 0.0024717925 -0.018595796
-0.10171215 0.0034001654 -0.019521981
-0.10123476 0.0038963405 -0.019826198
-0.10054168 0.0039620432 -0.019509936
-0.099522308 0.0033812055 -0.018260425
-0.098608889 0.0030147762 -0.017319126
-0.097802915 0.0028639832 -0.016688306
-0.096885554 0.0024961815 -0.015743185
-0.096187048 0.0025616623 -0.015423597
-0.094710246 0.0011040441 -0.012900044
-0.093560554 0.00029467075 -0.011312176
-0.092744209 0.00014048655 -0.010671559
-0.091247045 -0.0013340226 -0.0081169261
-0.11373927 -0.010789087 -0.0088370247
-0.11377115 -0.0091634421 -0.010739796
-0.11328357 -0.0086566759 -0.011050945
-0.11269214 -0.0083727567 -0.011044858
-0.11210069 -0.0080888374 -0.011038771
-0.11150925 -0.0078049186 -0.011032684
-0.11112771 -0.0070770076 -0.01166032
-0.11106122 -0.005687078 -0.013234047
-0.11130809 -0.0036442277 -0.015742369
-0.11113748 -0.0024868972 -0.016987415
-0.11055059 -0.0022051621 -0.016981374
-0.10996369 -0.001923427 -0.016975334
-0.1093768 -0.0016416919 -0.016969293
-0.10878991 -0.0013599567 -0.016963253
-0.1084135 -0.00064285402 -0.017581269
-0.10782708 -0.00036134681 -0.017575232
-0.10734625 0.00013735252 -0.01788085
-0.10770867 0.0023645794 -0.020668425
-0.10785932 0.0041478625 -0.02282127
-0.1072769 0.004427447 -0.022815276
-0.10658932 0.0044930726 -0.022501612
-0.10590117 0.0045587509 -0.022187697
-0.10382916 0.0018257129 -0.017844651
-0.10259818 0.00080610282 -0.0159648
-0.10211849 0.0013053394 -0.01627169
-0.10153112 0.0015873028 -0.016265644
-0.10159231 0.0031671654 -0.018131943
-0.10100637 0.0034484451 -0.018125912
-0.10042042 0.0037297248 -0.018119881
-0.099617213 0.0035797541 -0.01749073
-0.098812714 0.0034295404 -0.016860561
-0.097897314 0.0030627244 -0.015916415
-0.096979693 0.0026950154 -0.014969971
-0.095838353 0.0018915096 -0.013391477
-0.094580799 0.00086624181 -0.011490008
-0.09365388 0.00049374229 -0.010532735
-0.092611983 -9.917804e-05 -0.0092547527
-0.11356063 -0.0096378205 -0.009005188
-0.11338495 -0.0084612584 -0.010271397
-0.11268891 -0.0083998488 -0.0099476175
-0.11209699 -0.0081156986 -0.0099415258
-0.11108484 -0.0087229451 -0.0086620534
-0.11059737 -0.0082153231 -0.0089746881
-0.11074199 -0.0063756825 -0.011192494
-0.11067627 -0.0049871788 -0.012767172
-0.11081996 -0.0031656588 -0.014963415
-0.11044115 -0.0024456389 -0.015584302
-0.10985354 -0.0021635613 -0.015578254
-0.10937092 -0.0016631216 -0.015885301
-0.10899373 -0.0009451927 -0.016504688
-0.10840683 -0.00066345755 -0.016498648
-0.10781994 -0.00038172246 -0.016492607
-0.10754983 0.00055161346 -0.017422842
-0.10791151 0.0027773385 -0.020212078
-0.10795696 0.0043454422 -0.022058358
-0.10747917 0.004839045 -0.022360213
-0.10679168 0.004904836 -0.022046363
-0.10610361 0.0049706805 -0.021732265
-0.10435301 0.00288795 -0.018320693
-0.10280225 0.0012213711 -0.015505677
-0.10221464 0.0015034488 -0.015499629
-0.10162704 0.0017855266 -0.015493581
-0.10125598 0.0025009527 -0.016113536
-0.1008855 0.003215221 -0.01673249
-0.10029885 0.0034968422 -0.016726451
-0.099603429 0.0035625694 -0.016408037
-0.09879826 0.0034122199 -0.01577648
-0.097772337 0.0028283682 -0.014516345
-0.096963719 0.002677056 -0.013881712
-0.095488243 0.0012186262 -0.011351077
-0.094451047 0.00062785711 -0.010076517
-0.093747273 0.00069297646 -0.0097526573
-0.11366233 -0.009442403 -0.0082232105
-0.11338229 -0.0084884334 -0.0091730775
-0.11289448 -0.0079815295 -0.0094851209
-0.11188365 -0.0085885562 -0.0082049025
-0.11021055 -0.0075119906 -0.0085055251
-0.11067142 -0.005011437 -0.011674462
-0.11050116 -0.0038471795 -0.012931185
-0.11022668 -0.0029058335 -0.013869533
-0.10984803 -0.0021854404 -0.014491812
-0.10947 -0.0014662152 -0.015113084
-0.10909259 -0.00074815511 -0.015733348
-0.10861067 -0.00024869357 -0.016040083
-0.10802376 3.3041575e-05 -0.016034042
-0.10806917 0.0016153944 -0.017899396
-0.10790447 0.0027595758 -0.019135945
-0.10774031 0.0039000728 -0.020368511
-0.10747181 0.0048229904 -0.021288835
-0.10688892 0.0051027997 -0.021282835
-0.10620063 0.00516875 -0.020968301
-0.105088 0.0043773535 -0.019415891
-0.10343587 0.0025033327 -0.016298264
-0.10241871 0.0019187173 -0.015040508
-0.10183111 0.0022007949 -0.01503446
-0.1012435 0.0024828727 -0.015028411
-0.10065589 0.0027649503 -0.015022363
-0.100177 0.0032633934 -0.015329635
-0.099589624 0.0035453567 -0.015323589
-0.098455444 0.0027448819 -0.013748376
-0.097757012 0.0028105173 -0.013427718
-0.096284121 0.0013525223 -0.010895602
-0.095248222 0.00076197187 -0.0096202996
-0.094656542 0.0010460067 -0.0096142087
-0.093728572 0.00067327096 -0.0086534638
-0.11358795 -0.0080699427 -0.0087103918
-0.11299578 -0.0077856756 -0.0087042963
-0.11077152 -0.0048149321 -0.010896756
-0.11039121 -0.0040906398 -0.011523481
-0.11011653 -0.0031478491 -0.012464691
-0.10963243 -0.0026455859 -0.012773875
-0.10946419 -0.0014875286 -0.014026266
-0.10908647 -0.00076886913 -0.014647913
-0.10870937 -5.1373874e-05 -0.015268554
-0.1082276 0.00044780562 -0.015575478
-0.10774621 0.00094658113 -0.015882153
-0.10747629 0.0018779292 -0.016812751
-0.10752295 0.0034532668 -0.018673211
-0.10735939 0.0045926464 -0.019906523
-0.10677581 0.0048727943 -0.019900516
-0.10619222 0.0051529412 -0.019894511
-0.10539691 0.0050047217 -0.019269323
-0.10385372 0.0033498888 -0.016464589
-0.10273046 0.0025506399 -0.01489488
-0.10192718 0.002399348 -0.014261585
-0.10123101 0.0024647631 -0.013941524
-0.10053427 0.0025302314 -0.013621204
-0.099727899 0.0023786775 -0.012985843
-0.099029705 0.0024441904 -0.012664746
-0.098440669 0.0027269558 -0.012658682
-0.09741123 0.0021403253 -0.011389882
-0.096045397 0.00089608668 -0.0091640819
-0.095453709 0.0011801216 -0.009157991
-0.094750352 0.0012454663 -0.0088337567
-0.11097659 -0.004397634 -0.010435389
-0.11059611 -0.0036736813 -0.011062491
-0.11021624 -0.0029509061 -0.011688571
-0.10973191 -0.0024485188 -0.011998197
-0.10924795 -0.00194654 -0.012307571
-0.10908034 -0.00078961672 -0.013560718
-0.10849226 -0.00050731015 -0.013554664
-0.10811532 0.00021055467 -0.014176695
-0.1076334 0.00071003253 -0.01448431
-0.1073633 0.0016427984 -0.015417734
-0.10719941 0.0027892471 -0.016660791
-0.10714143 0.0041469578 -0.01821048
-0.1065569 0.0044275569 -0.018204462
-0.1061838 0.0051371073 -0.018818988
-0.10549384 0.0052032042 -0.018502828
-0.10384336 0.003332525 -0.015381505
-0.10282686 0.002749254 -0.014122262
-0.10159043 0.0017294098 -0.012228755
-0.10110999 0.002229488 -0.01253791
-0.10041235 0.0022949406 -0.012216629
-0.099823311 0.0025777058 -0.012210567
-0.098796129 0.0019908324 -0.010941036
-0.098096132 0.0020563211 -0.010618452
-0.096953355 0.0012488901 -0.0090259295
-0.096250884 0.0013142363 -0.0087017734
-0.095547855 0.0013796359 -0.0083773518
-0.094844237 0.0014450889 -0.0080526657
-0.11118166 -0.0039803358 -0.0099740233
-0.11059119 -0.0036968796 -0.0099679455
-0.11042098 -0.0025342868 -0.011227955
-0.10993655 -0.002032069 -0.011537768
-0.10934728 -0.0017491885 -0.011531703
-0.10886349 -0.0012474939 -0.011841266
-0.107957 -0.0016213607 -0.010887539
-0.10810842 0.00019060167 -0.013089116
-0.10752033 0.00047290823 -0.013083063
-0.10735578 0.0016240379 -0.014332924
-0.10698038 0.0023390157 -0.014953317
-0.10681712 0.0034843392 -0.016197124
-0.10665438 0.0046259672 -0.017436918
-0.10617537 0.0051212478 -0.01774173
-0.10559084 0.005401847 -0.017735714
-0.10394009 0.0035312148 -0.014610021
-0.10238404 0.0018629251 -0.011774575
-0.10157819 0.0017106434 -0.011136939
-0.10098867 0.0019936387 -0.011130871
-0.10039915 0.0022766343 -0.011124804
-0.099700376 0.0023421857 -0.010802556
-0.098891355 0.0021901084 -0.010163348
-0.098081023 0.0020377827 -0.0095230993
-0.097158752 0.001666869 -0.00856381
-0.11128201 -0.003783331 -0.0091953063
-0.11079626 -0.0032795814 -0.0095065786
-0.11031089 -0.0027762426 -0.0098175975
-0.1099311 -0.0020539034 -0.010444946
-0.10934134 -0.0017707929 -0.010438875
-0.10864592 -0.0017068618 -0.010116218
-0.10805593 -0.0014236361 -0.010110145
-0.10757206 -0.00092146144 -0.010420665
-0.10772456 0.00088851352 -0.012623569
-0.10713648 0.0011708201 -0.012617515
-0.10697257 0.0023208191 -0.01386813
-0.10680918 0.0034670983 -0.015114699
-0.10643482 0.0041794316 -0.015733458
-0.10616692 0.0051053623 -0.016662735
-0.10515706 0.0045266082 -0.015409126
-0.10371534 0.003081274 -0.012895758
-0.10258862 0.0022792059 -0.011314334
-0.10167447 0.0019096432 -0.010359962
-0.10108472 0.0021927536 -0.010353892
-0.10060389 0.0026932533 -0.010664187
-0.10001437 0.0029762487 -0.010658119
-0.099096343 0.0026072364 -0.0097021693
-0.098286174 0.0024552511 -0.0090615442
-0.097474679 0.0023030173 -0.0084198751
-0.11127765 -0.0038066471 -0.0080979001
-0.11089645 -0.003082291 -0.0087276725
-0.11041084 -0.0025788271 -0.0090391347
-0.10992564 -0.0020757732 -0.0093503436
-0.10944082 -0.001573129 -0.0096613001
-0.10874516 -0.0015090914 -0.0093381936
-0.10804893 -0.0014450015 -0.0090148235
-0.10767082 -0.00072345196 -0.0096430816
-0.1075055 0.00043336378 -0.010902595
-0.10734072 0.0015864254 -0.012158021
-0.10707064 0.0025192597 -0.013095409
-0.10690702 0.0036656815 -0.014343732
-0.10642657 0.0041627525 -0.014650657
-0.1059465 0.0046594217 -0.014957334
-0.10493464 0.0040790075 -0.013698933
-0.10348985 0.0026298715 -0.011175926
-0.10246906 0.0020433213 -0.0099052293
-0.1018793 0.0023264319 -0.0098991599
-0.10128953 0.0026095423 -0.0098930895
-0.10080864 0.0031098726 -0.010203571
-0.10011002 0.0031757634 -0.0098809488
-0.099301331 0.0030243644 -0.0092409905
-0.098491326 0.002872719 -0.00859999
-0.11051089 -0.002381251 -0.0082600378
-0.11002544 -0.0018780726 -0.0085716909
-0.10943496 -0.0015946163 -0.0085656131
-0.10884447 -0.0013111598 -0.0085595362
-0.108148 -0.0012469633 -0.0082357181
-0.10766352 -0.00074424705 -0.0085473806
-0.10771008 0.00084964448 -0.010442353
-0.10743911 0.0017848902 -0.011383351
-0.10695687 0.0022843373 -0.011692473
-0.10689915 0.0036485663 -0.013258491
-0.1064183 0.0041460465 -0.013566103
-0.10583165 0.0044276677 -0.013560064
-0.10449749 0.0031969957 -0.011353074
-0.10337144 0.0023945107 -0.0097672259
-0.10245751 0.0020247877 -0.0088101886
-0.10186728 0.0023081286 -0.0088041136
-0.10127704 0.0025914698 -0.0087980377
-0.10090459 0.0033094415 -0.0094262147
-0.10009656 0.0031581516 -0.0087858876
-0.099506319 0.0034414926 -0.0087798126
-0.098696478 0.0032901871 -0.0081384359
-0.10786859 -0.000326949 -0.0080860136
-0.10780877 0.0010481324 -0.0096657267
-0.10732561 0.0015486906 -0.009976048
-0.10705511 0.0024830853 -0.010917614
-0.10689125 0.0036314235 -0.01217149
-0.10662204 0.0045606429 -0.013107724
-0.10603538 0.0048422636 -0.013101686
-0.10448763 0.0031794442 -0.010261877
-0.10325274 0.0021585748 -0.0083550848
-0.10255428 0.0022241585 -0.0080313152
-0.10196379 0.0025076149 -0.0080252383
-0.10137331 0.0027910713 -0.0080191605
-0.10089178 0.0032919387 -0.0083307838
-0.10030154 0.0035752798 -0.0083247088
-0.10780158 0.0010288041 -0.0085713817
-0.10753018 0.0019649712 -0.009515807
-0.10704732 0.0024649538 -0.0098260641
-0.10688335 0.0036142529 -0.011082727
-0.10650788 0.004328487 -0.011706508
-0.1059205 0.0046104505 -0.011700463
-0.10437044 0.002944754 -0.0088520618
-0.10859616 0.0011624824 -0.0081166476
-0.10800641 0.0014455928 -0.0081105772
-0.10741665 0.0017287034 -0.0081045078
-0.10703952 0.002446793 -0.0087327389
-0.10676926 0.0033804732 -0.0096762013
-0.1066058 0.0045278221 -0.010932597
-0.10591181 0.0045940736 -0.010611317
-0.10697366 0.0037964159 -0.0092163328
-0.1063851 0.0040789512 -0.0092102746
-0.10547633 0.0037118837 -0.0082541145
-0.10766079 0.0037132888 -0.008445899
-0.10717807 0.0042123585 -0.0087564653
-0.10658951 0.0044948943 -0.008750407
-0.089720853 -0.0038482817 -0.083242394
-0.090131745 -0.0034578447 -0.083240181
-0.094362833 -0.00098934351 -0.084933221
-0.094772704 -0.00059986732 -0.084931023
-0.08668489 -0.006027652 -0.081446134
-0.087175503 -0.0057843574 -0.081690282
-0.087979861 -0.0061322083 -0.082917295
-0.088468976 -0.005889392 -0.083160415
-0.08880163 -0.0053513343 -0.082912877
-0.089523971 -0.0055518551 -0.083890945
-0.089701205 -0.0047184941 -0.083153792
-0.090189546 -0.0044762609 -0.08339674
-0.09060014 -0.0040860991 -0.083394542
-0.091087997 -0.0038441736 -0.08363732
-0.093855746 -0.0020992218 -0.084602326
-0.094493397 -0.0021554548 -0.085331991
-0.094902843 -0.0017663891 -0.085329793
-0.095312282 -0.0013773234 -0.085327595
-0.086587228 -0.0067513608 -0.081111506
-0.087156713 -0.006655422 -0.081602082
-0.087725393 -0.0065596187 -0.082091972
-0.088293284 -0.0064639505 -0.08258117
-0.089016341 -0.0066629052 -0.083559699
-0.089426652 -0.0062730177 -0.083557494
-0.089836963 -0.0058831307 -0.083555289
-0.090247266 -0.0054932432 -0.083553083
-0.090580195 -0.0049556149 -0.083305955
-0.09099064 -0.0045655905 -0.08330375
-0.091401093 -0.0041755657 -0.083301544
-0.091811545 -0.0037855413 -0.083299339
-0.094320372 -0.0027268855 -0.084755339
-0.094805717 -0.0024860324 -0.08499705
-0.095215164 -0.0020969668 -0.084994845
-0.095398016 -0.0012617196 -0.084260412
-0.096887343 0.00059525826 -0.083762586
-0.097297505 0.00098500832 -0.083760381
-0.086647652 -0.0077696089 -0.081269898
-0.08713793 -0.0075258724 -0.081513941
-0.087549254 -0.007135022 -0.081511736
-0.088274129 -0.0073332414 -0.082492806
-0.088606715 -0.0067956927 -0.082245037
-0.08917357 -0.0066999258 -0.08273378
-0.089739636 -0.0066042934 -0.083221838
-0.090149947 -0.0062144059 -0.083219633
-0.090637617 -0.0059719025 -0.083462305
-0.091047779 -0.0055821524 -0.0834601
-0.091303736 -0.0048969826 -0.082967974
-0.091868103 -0.0048026522 -0.083455689
-0.092278264 -0.0044129021 -0.083453491
-0.092611782 -0.0038750826 -0.083206408
-0.095193647 -0.002964739 -0.084905945
-0.095602952 -0.0025758096 -0.084903747
-0.095861562 -0.0018899719 -0.08441367
-0.09727522 0.00011462645 -0.083671764
-0.09768524 0.00050423952 -0.083669566
-0.086848862 -0.010200563 -0.083148792
-0.087337524 -0.0099567426 -0.083391406
-0.087590784 -0.0092748925 -0.082899407
-0.08800108 -0.0088850046 -0.082897201
-0.088411391 -0.0084951185 -0.082894996
-0.088899672 -0.0082518123 -0.08313778
-0.089154124 -0.0075685214 -0.082645424
-0.089642316 -0.007325456 -0.08288838
-0.09005262 -0.006935569 -0.082886174
-0.090694964 -0.006986761 -0.083618432
-0.091104835 -0.0065972847 -0.083616227
-0.091514707 -0.0062078089 -0.083614029
-0.09177082 -0.005523561 -0.08312235
-0.092180975 -0.0051338109 -0.083120152
-0.092591144 -0.0047440608 -0.083117947
-0.093154207 -0.0046499041 -0.083605215
-0.093716487 -0.0045558801 -0.084091805
-0.094202042 -0.0043143849 -0.08433374
-0.095581308 -0.0034431096 -0.084814914
-0.095990457 -0.0030543171 -0.084812716
-0.096399613 -0.0026655241 -0.084810518
-0.09658359 -0.0018314631 -0.084076412
-0.097587988 -0.00021641604 -0.083336338
-0.097998008 0.000173197 -0.08333414
-0.098408028 0.00056281005 -0.083331943
-0.086672843 -0.01077583 -0.082570359
-0.087397166 -0.010968444 -0.083547533
-0.087885119 -0.010724612 -0.083789743
-0.088294707 -0.010335408 -0.083787546
-0.088470325 -0.0095085595 -0.083051585
-0.088880338 -0.0091189463 -0.083049379
-0.089290358 -0.0087293331 -0.083047174
-0.089622714 -0.0081932209 -0.082800031
-0.090032876 -0.0078034708 -0.082797833
-0.090597741 -0.0077071632 -0.083285332
-0.091007613 -0.0073176869 -0.083283126
-0.091417491 -0.0069282111 -0.083280928
-0.091827363 -0.0065387348 -0.083278723
-0.092160493 -0.0060020415 -0.083031751
-0.09264712 -0.0057597826 -0.08327432
-0.09313339 -0.0055176946 -0.083516717
-0.093619332 -0.0052757766 -0.083758943
-0.094180882 -0.0051813787 -0.084245078
-0.094892904 -0.0053813644 -0.085217498
-0.095301628 -0.0049929805 -0.0852153
-0.095710352 -0.0046045966 -0.08521311
-0.0961942 -0.0043635922 -0.085454151
-0.096752569 -0.0042700646 -0.085937902
-0.097235546 -0.00402943 -0.086178429
-0.097419947 -0.0031988488 -0.085447565
-0.097190723 -0.00034002992 -0.082022294
-0.097751133 -0.00024887358 -0.082510851
-0.098310776 -0.00015784548 -0.082998715
-0.098795235 8.2358623e-05 -0.083241291
-0.099353544 0.0001730581 -0.083728135
-0.099763133 0.00056226057 -0.083725937
-0.10024656 0.00080195873 -0.083967999
-0.10028695 0.0019402821 -0.082742751
-0.087221526 -0.011543375 -0.082969844
-0.08770971 -0.011299253 -0.083212338
-0.088119447 -0.010909914 -0.08321014
-0.088529177 -0.010520576 -0.083207943
-0.088861026 -0.0099854702 -0.082961038
-0.089193106 -0.0094499886 -0.082713962
-0.089603126 -0.0090603754 -0.082711756
-0.090013146 -0.0086707622 -0.082709551
-0.090500519 -0.0084275659 -0.082952231
-0.090987556 -0.0081845401 -0.083194733
-0.09147425 -0.0079416847 -0.08343707
-0.091883838 -0.0075524822 -0.083434872
-0.092293419 -0.0071632802 -0.083432667
-0.092626482 -0.0066271829 -0.083185934
-0.093112595 -0.0063848747 -0.083428279
-0.093522176 -0.0059956722 -0.083426073
-0.094083801 -0.005900769 -0.083912447
-0.094871536 -0.0062464657 -0.08512868
-0.095280118 -0.0058582178 -0.085126482
-0.095613413 -0.0053229788 -0.084880941
-0.096022137 -0.004934595 -0.084878743
-0.096505865 -0.0046934742 -0.085119896
-0.097213387 -0.0048937933 -0.086089402
-0.097770266 -0.0048000258 -0.086572036
-0.098177984 -0.0044125929 -0.086569846
-0.098140188 -0.0031404833 -0.085111119
-0.098102242 -0.0018630135 -0.083646245
-0.098138846 -0.0007293775 -0.082420431
-0.098846808 -0.00093604048 -0.08339747
-0.099256396 -0.00054683798 -0.083395272
-0.099740013 -0.00030675036 -0.083637454
-0.10014945 8.2315448e-05 -0.083635256
-0.1005589 0.00047138124 -0.08363305
-0.10096834 0.00086044706 -0.083630852
-0.10152454 0.00095050497 -0.084116906
-0.087281227 -0.012553605 -0.083126202
-0.087690815 -0.012164403 -0.083124012
-0.088100404 -0.011775201 -0.083121814
-0.088509984 -0.011385998 -0.083119608
-0.088841721 -0.010851385 -0.082872756
-0.089173682 -0.010316396 -0.082625732
-0.089505874 -0.0097810309 -0.082378529
-0.089993432 -0.0095374444 -0.082621329
-0.090480641 -0.0092940284 -0.082863949
-0.090967514 -0.0090507828 -0.083106406
-0.091530919 -0.0089537352 -0.083593003
-0.092170127 -0.009002679 -0.084322713
-0.092426069 -0.0083220731 -0.083832748
-0.092682369 -0.0076405122 -0.083342098
-0.09301544 -0.0071047712 -0.083095409
-0.093501255 -0.0068623805 -0.083337694
-0.09398672 -0.0066201603 -0.083579808
-0.094774626 -0.006964596 -0.08479663
-0.095183201 -0.0065763476 -0.084794432
-0.095591791 -0.0061881002 -0.084792234
-0.09592519 -0.0056529772 -0.084546581
-0.096333906 -0.0052645933 -0.08454439
-0.096967176 -0.0053173434 -0.085272074
-0.09745007 -0.0050763423 -0.085512832
-0.097932622 -0.0048355097 -0.085753426
-0.098266378 -0.0043006619 -0.085508451
-0.098674528 -0.0039128219 -0.085506253
-0.099082679 -0.0035249819 -0.08550407
-0.098824002 -0.0018045253 -0.083309099
-0.099233449 -0.0014154594 -0.083306901
-0.099716902 -0.0011751511 -0.08354903
-0.10027379 -0.0010836967 -0.084034972
-0.10046177 -0.00024826205 -0.0833003
-0.10087122 0.00014080374 -0.083298102
-0.10128066 0.00052986958 -0.083295904
-0.10169011 0.00091893529 -0.083293699
-0.10209955 0.0013080011 -0.083291501
-0.087340854 -0.013562418 -0.083282359
-0.087671936 -0.013028945 -0.083035737
-0.088003248 -0.012495096 -0.082788937
-0.088412844 -0.012105894 -0.082786746
-0.088822424 -0.011716692 -0.082784541
-0.089154266 -0.011182195 -0.082537577
-0.089408621 -0.010501686 -0.082045317
-0.089818642 -0.010112073 -0.082043111
-0.09046077 -0.010159882 -0.082775742
-0.09102454 -0.010062056 -0.083262563
-0.091587521 -0.0099643655 -0.083748713
-0.092149712 -0.0098668132 -0.084234171
-0.092634805 -0.0096239652 -0.084475547
-0.09296716 -0.0090900455 -0.084229782
-0.09314733 -0.0082636261 -0.083495833
-0.093480341 -0.0077284798 -0.083249375
-0.093889639 -0.0073395511 -0.083247177
-0.094677709 -0.0076827258 -0.08446458
-0.095086299 -0.0072944784 -0.084462382
-0.095494881 -0.0069062305 -0.084460191
-0.095903456 -0.0065179826 -0.084457994
-0.096312039 -0.0061297351 -0.084455796
-0.096945107 -0.0061815581 -0.08518333
-0.097353265 -0.0057937182 -0.085181132
-0.097761415 -0.0054058782 -0.085178941
-0.098169565 -0.0050180382 -0.085176751
-0.098577723 -0.0046301978 -0.085174553
-0.098985873 -0.0042423583 -0.085172363
-0.099394031 -0.0038545178 -0.085170172
-0.099654578 -0.003171498 -0.084681652
-0.09991549 -0.0024875202 -0.084192462
-0.10032422 -0.0020991364 -0.084190264
-0.10065939 -0.0015623914 -0.083944306
-0.1009948 -0.00102527 -0.083698176
-0.10118355 -0.00018977375 -0.082963154
-0.101593 0.00019929203 -0.082960956
-0.10214875 0.00028981396 -0.083447479
-0.10263085 0.00052935549 -0.083689384
-0.1031126 0.00076872896 -0.083931133
-0.087008424 -0.01384904 -0.082215592
-0.087496512 -0.013604196 -0.082458273
-0.087906107 -0.013214992 -0.082456067
-0.088315688 -0.012825791 -0.082453869
-0.088725276 -0.012436587 -0.082451679
-0.089134865 -0.012047385 -0.082449473
-0.089311369 -0.011222341 -0.081712097
-0.089721389 -0.010832729 -0.081709892
-0.09028627 -0.010734326 -0.082197979
-0.090927459 -0.010781446 -0.082929932
-0.091797359 -0.0112635 -0.084391408
-0.092205793 -0.010875388 -0.084389217
-0.092537887 -0.010342095 -0.084143505
-0.09294647 -0.0099538472 -0.084141307
-0.09335506 -0.0095655993 -0.084139116
-0.093839556 -0.0093229422 -0.08438044
-0.093868591 -0.0082051791 -0.083158918
-0.094277747 -0.0078163864 -0.08315672
-0.094838247 -0.0077203061 -0.083642766
-0.095322572 -0.0074781245 -0.08388444
-0.095806547 -0.0072361128 -0.084125936
-0.096215129 -0.0068478649 -0.084123746
-0.096848294 -0.0068989345 -0.084851623
-0.097405627 -0.0068037314 -0.085335299
-0.097739078 -0.0062697595 -0.085090257
-0.098072752 -0.0057354141 -0.084845044
-0.09848091 -0.0053475741 -0.084842853
-0.09888906 -0.0049597342 -0.084840663
-0.099297211 -0.0045718942 -0.084838472
-0.099705368 -0.0041840537 -0.084836274
-0.10011352 -0.003796214 -0.084834084
-0.10037457 -0.0031131529 -0.084345333
-0.10063599 -0.0024291344 -0.083855897
-0.10097127 -0.0018925052 -0.083609827
-0.10101288 -0.00076051394 -0.082385667
-0.10142246 -0.0003713115 -0.082383469
-0.10190532 -0.00013128546 -0.082626007
-0.10246086 -4.0531533e-05 -0.083112761
-0.10301562 5.0095092e-05 -0.083598845
-0.1035696 0.0001405947 -0.084084243
-0.10383336 0.00082713523 -0.083594449
-0.08683265 -0.014424983 -0.081637435
-0.087320969 -0.01417985 -0.081880406
-0.087730706 -0.013790511 -0.081878208
-0.08821854 -0.013545686 -0.082121007
-0.088628128 -0.013156484 -0.082118802
-0.088882022 -0.012477603 -0.08162643
-0.0892919 -0.012088127 -0.081624232
-0.089624129 -0.011553383 -0.081376679
-0.090189084 -0.011454475 -0.081864998
-0.090676054 -0.011210471 -0.082107805
-0.091700479 -0.011981378 -0.084059469
-0.092185386 -0.011737959 -0.084300742
-0.092593685 -0.011349984 -0.084298551
-0.092925794 -0.010817043 -0.084052898
-0.093334235 -0.010428932 -0.0840507
-0.093742676 -0.010040821 -0.08404851
-0.094151117 -0.0096527077 -0.084046312
-0.094559558 -0.0092645967 -0.084044114
-0.094892472 -0.0087307384 -0.083798282
-0.095301054 -0.0083424915 -0.083796091
-0.095709629 -0.0079542436 -0.083793893
-0.096118219 -0.0075659952 -0.083791696
-0.096751489 -0.0076163104 -0.084519923
-0.097532354 -0.0079580424 -0.0857317
-0.097939797 -0.0075708805 -0.08572951
-0.098124616 -0.0067454684 -0.084999442
-0.09845832 -0.0062114764 -0.084754288
-0.098792255 -0.00567711 -0.084508955
-0.099200398 -0.0052892705 -0.084506765
-0.099608555 -0.0049014301 -0.084504575
-0.10001671 -0.0045135897 -0.084502384
-0.10042486 -0.0041257502 -0.084500194
-0.10083301 -0.00373791 -0.084497996
-0.1008743 -0.0026111391 -0.083277538
-0.10091572 -0.00148041 -0.082052805
-0.10125181 -0.00094231602 -0.081805572
-0.10173489 -0.00070200511 -0.082048401
-0.10236381 -0.00075966975 -0.082780249
-0.10284583 -0.00051976013 -0.083022393
-0.10332751 -0.00028001872 -0.083264366
-0.10388127 -0.00018928775 -0.083749995
-0.10436209 5.0085931e-05 -0.083991453
-0.086499222 -0.014712919 -0.080567434
-0.086988173 -0.014467426 -0.080811046
-0.087476783 -0.014222105 -0.081054471
-0.08804325 -0.014121321 -0.081543021
-0.088530973 -0.01387638 -0.08178594
-0.088940561 -0.013487178 -0.081783734
-0.089194678 -0.012808529 -0.081291124
-0.089604557 -0.012419053 -0.081288926
-0.090014428 -0.012029576 -0.081286721
-0.090578914 -0.011930368 -0.081774943
-0.091142595 -0.011831298 -0.082262464
-0.09208855 -0.012455587 -0.083968922
-0.092573144 -0.012212086 -0.084210142
-0.093057409 -0.011968758 -0.084451191
-0.093389452 -0.011436407 -0.084205754
-0.093721725 -0.010903683 -0.083960153
-0.094054237 -0.010370587 -0.083714381
-0.094462678 -0.0099824751 -0.083712183
-0.094871111 -0.0095943632 -0.083709985
-0.095279552 -0.0092062522 -0.083707795
-0.095687985 -0.0088181403 -0.083705597
-0.096096426 -0.0084300283 -0.083703406
-0.096654676 -0.0083336867 -0.084188215
-0.097212143 -0.0082374802 -0.084672354
-0.097694442 -0.0079957107 -0.084913068
-0.098176405 -0.0077541098 -0.085153624
-0.098435745 -0.0070747738 -0.084665783
-0.098769553 -0.0065408968 -0.08442051
-0.099177562 -0.0061531924 -0.084418319
-0.09951175 -0.0056188065 -0.084172875
-0.0999199 -0.005230966 -0.084170677
-0.10032805 -0.0048431265 -0.084168486
-0.10073621 -0.0044552861 -0.084166296
-0.10114436 -0.0040674461 -0.084164098
-0.1007449 -0.0020518042 -0.081474796
-0.10115463 -0.001662465 -0.081472591
-0.10156436 -0.0012731259 -0.081470393
-0.10204733 -0.0010326988 -0.081713334
-0.10267592 -0.0010900153 -0.082445532
-0.10323053 -0.00099865254 -0.082932085
-0.10363939 -0.00061013253 -0.082929887
-0.10419294 -0.00051917025 -0.083415747
-0.10474572 -0.0004283353 -0.083900936
-0.10529771 -0.00033762754 -0.084385447
-0.086086035 -0.014857054 -0.079248555
-0.086812206 -0.015044195 -0.080231778
-0.087222509 -0.014654308 -0.080229573
-0.08778955 -0.014553147 -0.080719046
-0.088433824 -0.014596276 -0.08145307
-0.088921241 -0.014351254 -0.081695937
-0.089330681 -0.013962189 -0.081693731
-0.089740127 -0.013573123 -0.081691533
-0.09007217 -0.013039466 -0.081444271
-0.090481758 -0.012650263 -0.081442073
-0.091045506 -0.012550688 -0.081929833
-0.091761924 -0.012740341 -0.082905501
-0.092552617 -0.013073587 -0.084121801
-0.093112759 -0.012974099 -0.084605813
-0.093520485 -0.012586666 -0.084603623
-0.093776651 -0.011910474 -0.08411523
-0.094108947 -0.011378103 -0.083869673
-0.094441473 -0.010845358 -0.083623946
-0.094925255 -0.010602423 -0.083865285
-0.095333405 -0.010214582 -0.083863094
-0.095741563 -0.009826743 -0.083860904
-0.096149713 -0.0094389031 -0.083858714
-0.096557863 -0.0090510622 -0.083856516
-0.097040735 -0.0088088391 -0.084097683
-0.097597733 -0.0087123336 -0.084581718
-0.098005459 -0.0083249006 -0.084579527
-0.098413184 -0.0079374677 -0.084577337
-0.09882091 -0.0075500342 -0.084575146
-0.099228628 -0.0071626012 -0.084572963
-0.0995626 -0.0066289417 -0.084327735
-0.099970467 -0.0062413733 -0.084325545
-0.10023124 -0.0055605019 -0.083836786
-0.1006394 -0.0051726624 -0.083834596
-0.10104755 -0.004784822 -0.083832398
-0.10123596 -0.0039550345 -0.08309906
-0.10117296 -0.0013981402 -0.080154642
-0.1018769 -0.0016039357 -0.081135198
-0.10235977 -0.0013633923 -0.081378266
-0.10298802 -0.0014203606 -0.082110815
-0.10354241 -0.0013287663 -0.082597606
-0.10402368 -0.0010888255 -0.082839638
-0.10457677 -0.00099755963 -0.083325393
-0.10527274 -0.0012029798 -0.084297068
-0.10575223 -0.0009636702 -0.084537916
-0.10615995 -0.00057623698 -0.084535725
-0.085671686 -0.015001596 -0.077925958
-0.086399458 -0.015188796 -0.07891243
-0.08712519 -0.01537547 -0.079896122
-0.087535501 -0.014985583 -0.079893924
-0.088102318 -0.01488419 -0.080383629
-0.088824131 -0.015070898 -0.081363179
-0.089311235 -0.014825796 -0.081605993
-0.089798003 -0.014580867 -0.081848636
-0.090207152 -0.014192074 -0.081846438
-0.090539128 -0.013659009 -0.081599399
-0.090948433 -0.013270079 -0.081597202
-0.09135773 -0.01288115 -0.081595004
-0.092379525 -0.013646839 -0.083546735
-0.093016051 -0.013690722 -0.084274463
-0.093575478 -0.013590873 -0.084758028
-0.09398292 -0.01320371 -0.084755838
-0.094390355 -0.012816547 -0.084753647
-0.094420291 -0.011707638 -0.083535776
-0.094828442 -0.011319798 -0.083533585
-0.095236592 -0.010931959 -0.083531395
-0.095719926 -0.010689077 -0.083772682
-0.096127935 -0.010301373 -0.083770484
-0.096685581 -0.010203824 -0.084254749
-0.097167894 -0.0099614514 -0.08449553
-0.097575478 -0.0095741535 -0.084493339
-0.097983055 -0.0091868564 -0.084491149
-0.098316476 -0.0086540906 -0.084245987
-0.098724194 -0.0082666576 -0.084243797
-0.099131919 -0.0078792246 -0.084241606
-0.099613391 -0.0076376647 -0.084482394
-0.10002097 -0.0072503672 -0.084480204
-0.1003551 -0.0067169252 -0.084235027
-0.10076282 -0.0063294922 -0.084232844
-0.10095074 -0.0055021984 -0.083500691
-0.10121238 -0.0048203324 -0.083011016
-0.10204295 -0.0016373462 -0.080308743
-0.10259918 -0.0015454062 -0.080797821
-0.10330013 -0.0017507062 -0.081776097
-0.1038543 -0.0016588803 -0.08226312
-0.10455202 -0.0018635899 -0.083237298
-0.10503227 -0.0016237977 -0.083478779
-0.10565552 -0.0016802937 -0.084206559
-0.10613471 -0.0014409008 -0.084447354
-0.10654228 -0.001053603 -0.084445171
-0.10694987 -0.00066630536 -0.084442981
-0.084777586 -0.014276103 -0.075106427
-0.085826993 -0.015044611 -0.077093728
-0.086476073 -0.015087401 -0.077834696
-0.087123774 -0.015130102 -0.078574091
-0.087613195 -0.014884116 -0.078818738
-0.088649109 -0.015646866 -0.080785133
-0.089136451 -0.015401476 -0.081028238
-0.089700952 -0.015300005 -0.081516124
-0.090187408 -0.015054994 -0.081758708
-0.090519264 -0.014522419 -0.081511721
-0.09092842 -0.014133626 -0.081509523
-0.091414452 -0.013889026 -0.081752114
-0.092282712 -0.014364215 -0.083215043
-0.092919342 -0.014407346 -0.083943106
-0.093554638 -0.014450386 -0.08466965
-0.093961939 -0.014063359 -0.084667459
-0.094369233 -0.013676331 -0.084665269
-0.094701156 -0.013145508 -0.084420338
-0.09503331 -0.012614314 -0.084175237
-0.095139787 -0.011649335 -0.083199695
-0.095773414 -0.011695313 -0.083927773
-0.096181147 -0.01130788 -0.083925582
-0.096588865 -0.010920447 -0.083923392
-0.097220317 -0.010967141 -0.084649958
-0.097701944 -0.010724756 -0.084890343
-0.097886384 -0.0099032288 -0.084159911
-0.09829396 -0.0095159309 -0.08415772
-0.098701544 -0.0091286339 -0.08415553
-0.099330559 -0.0091771893 -0.084881589
-0.099737719 -0.0087902965 -0.084879413
-0.099997871 -0.0081123961 -0.084391885
-0.10033188 -0.0075794426 -0.084146775
-0.10066611 -0.0070461156 -0.083901487
-0.10107384 -0.0066586821 -0.083899297
-0.10148156 -0.0062712487 -0.083897106
-0.10152394 -0.0051500993 -0.082676888
-0.10361224 -0.0020810519 -0.081441388
-0.10438301 -0.002433317 -0.082661532
-0.10486348 -0.0021932414 -0.082903288
-0.10541539 -0.0021012984 -0.083388492
-0.10596654 -0.002009484 -0.083873019
-0.10644561 -0.0017699761 -0.084113933
-0.10692435 -0.0015306356 -0.084354676
-0.10740275 -0.0012914623 -0.084595256
-0.10766836 -0.0006080828 -0.084107362
-0.085092567 -0.01460949 -0.074768633
-0.08614108 -0.015377056 -0.076756887
-0.086710893 -0.015275029 -0.07725054
-0.087437205 -0.015461844 -0.078237958
-0.08784809 -0.015071407 -0.078235753
-0.088883698 -0.015833899 -0.080204479
-0.08944878 -0.015732054 -0.080693282
-0.090013064 -0.01563035 -0.081181407
-0.090499416 -0.015385224 -0.081424102
-0.090908423 -0.014996568 -0.081421912
-0.091317438 -0.014607911 -0.081419714
-0.091726445 -0.014219254 -0.081417516
-0.092746496 -0.014980664 -0.083368383
-0.093458034 -0.015166258 -0.084338635
-0.093940973 -0.014922407 -0.08457914
-0.094272628 -0.014392205 -0.084334262
-0.094679922 -0.014005178 -0.084332079
-0.094936632 -0.013330687 -0.083843999
-0.095344216 -0.012943388 -0.083841816
-0.095751792 -0.01255609 -0.083839625
-0.096159376 -0.012168793 -0.083837435
-0.096641712 -0.011925818 -0.084078267
-0.097049147 -0.011538656 -0.084076077
-0.097531006 -0.011295987 -0.08431676
-0.098012522 -0.011053487 -0.084557265
-0.098345593 -0.010521933 -0.084312387
-0.098678909 -0.0099900067 -0.08406733
-0.099307731 -0.010037643 -0.084793225
-0.099714741 -0.0096508851 -0.084791049
-0.1000483 -0.0091190273 -0.084546335
-0.10030867 -0.0084413569 -0.084058568
-0.10071611 -0.008054194 -0.084056392
-0.10097713 -0.0073753055 -0.083567947
-0.10138485 -0.0069878725 -0.083565757
-0.10179258 -0.0066004395 -0.083563566
-0.1022003 -0.0062130061 -0.083561376
-0.10469458 -0.0027630839 -0.082327403
-0.1052468 -0.0026707097 -0.082813181
-0.10572662 -0.0024307191 -0.083054714
-0.10627755 -0.0023386744 -0.083539471
-0.10675652 -0.0020990511 -0.083780505
-0.10723515 -0.0018595958 -0.084021367
-0.10778425 -0.0017680785 -0.084504776
-0.10819141 -0.0013811865 -0.084502585
-0.084768064 -0.013778409 -0.072428092
-0.086455174 -0.015709501 -0.076420046
-0.087024756 -0.01560724 -0.07691393
-0.087750629 -0.015793586 -0.077901833
-0.08847446 -0.015979409 -0.078886949
-0.089118451 -0.016021064 -0.079623424
-0.08960598 -0.015775369 -0.079867095
-0.090402395 -0.016104111 -0.081091702
-0.090888433 -0.015858904 -0.08133436
-0.091220424 -0.015326797 -0.081087314
-0.091629431 -0.014938141 -0.081085116
-0.092420913 -0.015267772 -0.082305454
-0.093209624 -0.01559625 -0.083521515
-0.093844399 -0.015638029 -0.084248245
-0.094251551 -0.015251137 -0.084246054
-0.09458331 -0.014721049 -0.084001072
-0.094915316 -0.014190591 -0.083755903
-0.095247537 -0.013659761 -0.083510578
-0.09550482 -0.012984557 -0.083021574
-0.095912687 -0.012596988 -0.083019383
-0.09654507 -0.012641941 -0.083747149
-0.096952505 -0.012254779 -0.083744965
-0.097434394 -0.012011859 -0.083985746
-0.097841695 -0.011624832 -0.083983563
-0.098248996 -0.011237806 -0.08398138
-0.098656289 -0.010850778 -0.083979189
-0.099211186 -0.010753015 -0.084462456
-0.099838801 -0.010799804 -0.085187189
-0.10017204 -0.010268901 -0.084942862
-0.10035888 -0.0094477581 -0.084213249
-0.10069278 -0.0089156413 -0.083968244
-0.10102691 -0.0083831549 -0.083723076
-0.10128815 -0.0077044959 -0.083234407
-0.10169587 -0.0073170629 -0.083232209
-0.10217644 -0.0070757 -0.083473347
-0.10251132 -0.0065421965 -0.083227828
-0.10500613 -0.0030928508 -0.081993274
-0.10555813 -0.0030002459 -0.082479276
-0.10603786 -0.0027601398 -0.082720943
-0.10658856 -0.0026678646 -0.083205931
-0.10713851 -0.0025757183 -0.083690248
-0.10768767 -0.0024837011 -0.084173881
-0.10823607 -0.0023918122 -0.084656842
-0.10850199 -0.0017099171 -0.084169507
-0.086040474 -0.015855556 -0.075090639
-0.087399513 -0.017193478 -0.078064352
-0.08796683 -0.01709046 -0.078555703
-0.088377133 -0.016700571 -0.078553498
-0.089021243 -0.016741466 -0.079290316
-0.089431114 -0.01635199 -0.079288118
-0.090073422 -0.016393207 -0.080023386
-0.090791456 -0.016577538 -0.081002071
-0.091354012 -0.016475383 -0.081489287
-0.091609195 -0.015800497 -0.080997683
-0.09217117 -0.015698889 -0.081484899
-0.092732362 -0.015597423 -0.081971437
-0.093747824 -0.016353654 -0.08391735
-0.094154976 -0.01596676 -0.083915167
-0.094486706 -0.015436922 -0.083670057
-0.094516799 -0.014332986 -0.082450725
-0.095150866 -0.014376134 -0.083179332
-0.095332816 -0.013557578 -0.082446337
-0.095815949 -0.013313862 -0.082687922
-0.096223816 -0.012926294 -0.082685731
-0.096855864 -0.012970901 -0.083413839
-0.09733779 -0.012727732 -0.083654746
-0.097745083 -0.012340705 -0.083652556
-0.098152384 -0.011953677 -0.083650365
-0.098485626 -0.011422251 -0.083405085
-0.098966978 -0.011179623 -0.083645999
-0.099595279 -0.011225997 -0.084372088
-0.10014894 -0.011128075 -0.084854566
-0.10055552 -0.010741723 -0.08485239
-0.1007427 -0.0099213598 -0.084122933
-0.10114971 -0.009534603 -0.08412075
-0.10155673 -0.0091478461 -0.08411856
-0.10189093 -0.0086158123 -0.083873615
-0.10215259 -0.0079377899 -0.083385386
-0.10270524 -0.0078420276 -0.083869241
-0.10282233 -0.0068713869 -0.082894288
-0.10586948 -0.0033297818 -0.082145385
-0.10634909 -0.0030895604 -0.082387164
-0.10689958 -0.002997055 -0.082872383
-0.1075911 -0.0031993235 -0.083842993
-0.10813957 -0.0031069352 -0.084326185
-0.10861688 -0.0028675459 -0.084566437
-0.10902362 -0.0024810587 -0.084564254
-0.085624591 -0.016002024 -0.073757462
-0.087302126 -0.017915148 -0.077730671
-0.088026069 -0.018097855 -0.078715332
-0.08867009 -0.018137246 -0.079451472
-0.089079678 -0.017748045 -0.079449266
-0.089566872 -0.017501917 -0.079692833
-0.089976311 -0.017112853 -0.079690635
-0.090385757 -0.016723786 -0.079688437
-0.091257095 -0.017193515 -0.081157245
-0.091742329 -0.016948186 -0.081399612
-0.09207426 -0.016417019 -0.081152849
-0.092482843 -0.016028773 -0.081150658
-0.093043819 -0.015927074 -0.081637427
-0.094058402 -0.016682383 -0.083584271
-0.094465561 -0.016295491 -0.083582096
-0.094571128 -0.015336674 -0.082606733
-0.094828032 -0.014662407 -0.082116947
-0.095536903 -0.014848512 -0.083089277
-0.095944345 -0.014461349 -0.083087094
-0.096351787 -0.014074186 -0.083084911
-0.096759222 -0.013687024 -0.083082721
-0.097241178 -0.013443604 -0.083323739
-0.097648479 -0.013056578 -0.083321549
-0.09805578 -0.01266955 -0.083319359
-0.098463073 -0.012282523 -0.083317176
-0.098870367 -0.011895495 -0.083314985
-0.099351421 -0.011652786 -0.08355584
-0.10005251 -0.0118427 -0.08452414
-0.1005323 -0.011600432 -0.08476416
-0.10101177 -0.011358334 -0.085004002
-0.10127226 -0.010683643 -0.084517591
-0.10160602 -0.0101527 -0.084273033
-0.10201274 -0.0097662136 -0.08427085
-0.10241947 -0.0093797268 -0.084268667
-0.10260867 -0.0085576503 -0.083538346
-0.10301582 -0.0081707584 -0.083536156
-0.10342298 -0.0077838665 -0.083533973
-0.10603769 -0.0033642729 -0.081322819
-0.10658897 -0.0032714778 -0.081809305
-0.10706834 -0.0030312769 -0.082051188
-0.10790168 -0.0035280541 -0.083509907
-0.10844994 -0.0034354362 -0.083993338
-0.10892714 -0.0031959321 -0.084233709
-0.10933387 -0.0028094451 -0.084231518
-0.08364521 -0.016748849 -0.071422949
-0.083978869 -0.016210254 -0.071169227
-0.084393106 -0.015816627 -0.071167
-0.085367203 -0.016438551 -0.072921544
-0.086257204 -0.016913204 -0.074418209
-0.087928817 -0.018818511 -0.07838212
-0.088572942 -0.018857144 -0.079118602
-0.089060314 -0.018610626 -0.079362281
-0.089547336 -0.018364282 -0.079605795
-0.089956634 -0.017975353 -0.079603598
-0.090365939 -0.017586423 -0.0796014
-0.090775229 -0.017197495 -0.079599194
-0.091568761 -0.017523397 -0.080822989
-0.092053883 -0.017277952 -0.081065483
-0.092385933 -0.016746903 -0.080818601
-0.092794508 -0.016358655 -0.080816403
-0.093279205 -0.016113617 -0.081058897
-0.094368987 -0.017011113 -0.083251201
-0.094776139 -0.016624222 -0.08324901
-0.095258452 -0.016379945 -0.083489805
-0.095440261 -0.015564634 -0.082758166
-0.095997602 -0.015463545 -0.083242446
-0.096404761 -0.015076653 -0.083240263
-0.096811913 -0.014689761 -0.083238073
-0.097144574 -0.014159477 -0.082992733
-0.097551875 -0.013772449 -0.08299055
-0.097959168 -0.013385423 -0.082988359
-0.098366462 -0.012998395 -0.082986169
-0.098847695 -0.012755302 -0.083227143
-0.09954948 -0.012943676 -0.084195897
-0.099956065 -0.012557324 -0.084193714
-0.10050909 -0.012458542 -0.08467599
-0.10091539 -0.012072459 -0.084673807
-0.10146737 -0.011974084 -0.085155413
-0.101946 -0.011732108 -0.085394874
-0.10206167 -0.010769936 -0.084425107
-0.10239559 -0.01023921 -0.084180608
-0.10280218 -0.0098528573 -0.084178418
-0.10320877 -0.0094665047 -0.084176242
-0.10361535 -0.009080153 -0.084174059
-0.10373355 -0.0081125963 -0.083200887
-0.1081416 -0.0037097433 -0.082933657
-0.10861941 -0.0034698925 -0.083174646
-0.1092374 -0.0035243188 -0.083900981
-0.10964413 -0.0031378316 -0.083898798
-0.084121875 -0.017372577 -0.071586899
-0.084535673 -0.016979367 -0.071584672
-0.08502949 -0.016730979 -0.071833536
-0.085682407 -0.016772175 -0.072583511
-0.086492524 -0.017101942 -0.073831394
-0.088085167 -0.01886406 -0.077553138
-0.088885374 -0.019187838 -0.078783534
-0.089450255 -0.019083671 -0.079273164
-0.090091653 -0.01912196 -0.080007419
-0.090577632 -0.01887578 -0.080250368
-0.090678155 -0.017916886 -0.079266563
-0.091087446 -0.017527957 -0.079264365
-0.091803804 -0.017710628 -0.080243774
-0.092365451 -0.017607717 -0.080731355
-0.092773885 -0.017219607 -0.080729157
-0.093182325 -0.016831495 -0.080726966
-0.093666717 -0.016586378 -0.080969408
-0.094604179 -0.017197512 -0.082674854
-0.095086724 -0.016952951 -0.082915932
-0.095568925 -0.016708562 -0.083156846
-0.095975935 -0.016321806 -0.083154656
-0.096382953 -0.015935048 -0.083152473
-0.096789964 -0.015548292 -0.083150283
-0.097196974 -0.015161535 -0.083148099
-0.097603992 -0.014774777 -0.083145909
-0.097936809 -0.014244708 -0.082900621
-0.098343961 -0.013857815 -0.082898438
-0.098898888 -0.013757989 -0.083382286
-0.099453039 -0.0136583 -0.083865464
-0.10000642 -0.013558752 -0.084347971
-0.10041272 -0.013172668 -0.084345788
-0.10081902 -0.012786586 -0.084343605
-0.10129822 -0.012544158 -0.084583521
-0.10177708 -0.012301899 -0.084823266
-0.10225561 -0.012059809 -0.085062839
-0.1026615 -0.011674128 -0.085060664
-0.10285054 -0.01085617 -0.084332697
-0.10311232 -0.01018113 -0.083845809
-0.10351891 -0.0097947773 -0.083843626
-0.10406946 -0.0096979206 -0.084326148
-0.10433208 -0.0090220729 -0.083839253
-0.10372931 -0.0065940944 -0.080425091
-0.10893 -0.0037986231 -0.082841568
-0.10947753 -0.0037058166 -0.083325461
-0.10995439 -0.003466218 -0.083566062
-0.083459735 -0.01708702 -0.069487169
-0.084437519 -0.017706674 -0.071248382
-0.08445023 -0.016589109 -0.069987446
-0.08518517 -0.016775452 -0.070992552
-0.085838377 -0.016816627 -0.07174395
-0.086807169 -0.017434977 -0.073493965
-0.088241741 -0.018909674 -0.076722994
