# .PCD v0.7 - Point Cloud Data file format
VERSION 0.7
FIELDS x y z
SIZE 4 4 4
TYPE F F F
COUNT 1 1 1
WIDTH 1284
HEIGHT 1
VIEWPOINT 0 0 0 1 0 0 0
POINTS 1284
DATA ascii
-0.11061289 -0.095198587 -0.016541151
-0.11161997 -0.094908625 -0.015257024
-0.1121159 -0.095132805 -0.015224624
-0.11261184 -0.095356978 -0.015192226
-0.11310778 -0.095581159 -0.015159828
-0.11278001 -0.096624129 -0.017128604
-0.11194339 -0.098167866 -0.020325415
-0.11162104 -0.099196561 -0.022266509
-0.11180726 -0.099719517 -0.022971708
-0.11128429 -0.10093939 -0.025386725
-0.1107648 -0.10215116 -0.027785691
-0.12763393 -0.10803955 -0.023843719
-0.12716575 -0.10913202 -0.026006375
-0.12722924 -0.10973781 -0.026945721
-0.12771645 -0.10995805 -0.026913892
-0.1285228 -0.10988987 -0.026153829
-0.12911718 -0.11001413 -0.025878891
-0.12960501 -0.11023466 -0.02584702
-0.12998587 -0.11055123 -0.026058249
-0.12983203 -0.11134619 -0.02748166
-0.12967882 -0.11213799 -0.028899418
-0.13005801 -0.11245257 -0.029108727
-0.13022381 -0.11295649 -0.029799206
-0.13156435 -0.11241665 -0.027838362
-0.13215815 -0.11254143 -0.027564712
-0.13296783 -0.11247591 -0.026806306
-0.13367099 -0.11250558 -0.026289249
-0.13372578 -0.11310631 -0.027227288
-0.13388833 -0.11361075 -0.027921241
-0.13394272 -0.1142086 -0.02885494
-0.13442831 -0.11442811 -0.028823217
-0.13491389 -0.11464761 -0.028791495
-0.13572474 -0.11458432 -0.028035816
-0.13664609 -0.11442639 -0.027036505
-0.13767937 -0.11417329 -0.025791591
-0.1381669 -0.11439367 -0.025759742
-0.13876428 -0.11451939 -0.025484763
-0.14024541 -0.11388569 -0.023257351
-0.085362419 -0.079194047 -0.009541519
-0.084261142 -0.081266746 -0.013822601
-0.083451159 -0.082995333 -0.017305555
-0.083481796 -0.083752498 -0.018520717
-0.083234541 -0.084824845 -0.020475809
-0.08345025 -0.085364744 -0.021186132
-0.083943181 -0.085587569 -0.021153929
-0.084436119 -0.085810393 -0.021121727
-0.085488059 -0.085400216 -0.01960271
-0.086356573 -0.085200362 -0.018575847
-0.086757265 -0.085529752 -0.018792449
-0.086782262 -0.086280875 -0.020002242
-0.086994469 -0.0868195 -0.020713283
-0.11138974 -0.091718473 -0.0090842247
-0.11116695 -0.092676207 -0.010831942
-0.10971796 -0.094868883 -0.01558957
-0.11011156 -0.095195673 -0.015807617
-0.11040288 -0.09562479 -0.016275615
-0.11140961 -0.095335543 -0.014991038
-0.11190554 -0.095559724 -0.014958639
-0.11240148 -0.095783897 -0.01492624
-0.11207563 -0.096826315 -0.016895646
-0.11154754 -0.098065749 -0.019350562
-0.11122594 -0.099095754 -0.021296225
-0.11141273 -0.099619336 -0.022003107
-0.11058789 -0.10113929 -0.025156409
-0.11007071 -0.10235038 -0.027556138
-0.11025704 -0.10286621 -0.028250687
-0.10964347 -0.10416404 -0.030870078
-0.12717097 -0.10935909 -0.025257992
-0.1272345 -0.10996499 -0.026198959
-0.12793453 -0.10999303 -0.025680983
-0.12842238 -0.11021356 -0.025649112
-0.12891023 -0.11043409 -0.02561724
-0.12929131 -0.11075059 -0.025828544
-0.12977901 -0.11097105 -0.025796684
-0.129839 -0.1115742 -0.026735999
-0.13032605 -0.11179437 -0.026704181
-0.12995853 -0.11277572 -0.02860716
-0.13001806 -0.11337409 -0.029539026
-0.13135803 -0.11283536 -0.027577493
-0.13227421 -0.112675 -0.026576908
-0.1329769 -0.11270482 -0.0260597
-0.13389707 -0.11254397 -0.025055097
-0.13395163 -0.11314544 -0.025996022
-0.13400605 -0.1137453 -0.026934447
-0.13373676 -0.11462662 -0.028594503
-0.13422233 -0.11484613 -0.02856278
-0.13503247 -0.11478303 -0.027806874
-0.13584422 -0.1147198 -0.027049465
-0.13698505 -0.1143726 -0.025561964
-0.13758203 -0.11449831 -0.02528692
-0.13796009 -0.11481336 -0.025498264
-0.13855742 -0.11493922 -0.025223199
-0.13959594 -0.11468646 -0.023972778
-0.085149981 -0.079625189 -0.0092728995
-0.084331095 -0.081371576 -0.012797623
-0.084173203 -0.08235094 -0.014531192
-0.083736539 -0.083645992 -0.017007371
-0.083766699 -0.084402062 -0.018223034
-0.083518676 -0.085472658 -0.020178931
-0.084012114 -0.085695699 -0.020146694
-0.084598504 -0.085813284 -0.019866494
-0.085558683 -0.085508376 -0.01859187
-0.086146779 -0.085626133 -0.018310579
-0.086547546 -0.085955374 -0.018527269
-0.086760335 -0.086495228 -0.019240996
-0.087254271 -0.086718507 -0.019208729
-0.11045657 -0.092880122 -0.010597004
-0.10941917 -0.094659708 -0.014352477
-0.10950774 -0.095295511 -0.015323764
-0.11020738 -0.095314093 -0.01478985
-0.11101041 -0.095229819 -0.014003841
-0.11119926 -0.095762461 -0.014725053
-0.11169519 -0.095986642 -0.014692654
-0.1120884 -0.096313268 -0.014911151
-0.11186583 -0.097252086 -0.016630379
-0.11133845 -0.098490082 -0.019086188
-0.11142385 -0.099116467 -0.020044597
-0.11130589 -0.099941872 -0.021493448
-0.11068293 -0.10126212 -0.024161249
-0.11086947 -0.10178127 -0.024862202
-0.11015073 -0.10318703 -0.027747503
-0.11003654 -0.10399558 -0.029165668
-0.12908444 -0.11117042 -0.025566982
-0.12957214 -0.11139087 -0.025535122
-0.13102569 -0.11074777 -0.023307862
-0.13151483 -0.11096889 -0.023275906
-0.13092792 -0.11214771 -0.025682684
-0.13109353 -0.11265395 -0.02637933
-0.13158058 -0.11287411 -0.026347511
-0.13206762 -0.11309427 -0.026315693
-0.13341841 -0.11255264 -0.024337737
-0.13444975 -0.11229558 -0.023084169
-0.13493893 -0.11251669 -0.023052214
-0.13466609 -0.11340527 -0.024729596
-0.13428631 -0.1143843 -0.026641607
-0.13477305 -0.11460432 -0.02660981
-0.13580321 -0.11435152 -0.025364187
-0.13639979 -0.11447722 -0.025089078
-0.13688748 -0.11469767 -0.025057217
-0.13737518 -0.11491813 -0.025025357
-0.13786288 -0.11513858 -0.024993496
-0.13835056 -0.11535903 -0.024961635
-0.14016251 -0.11444283 -0.021997347
-0.085343771 -0.080391645 -0.0092268819
-0.084430419 -0.082241505 -0.013003365
-0.084178917 -0.083325207 -0.014986655
-0.084021926 -0.084296644 -0.016709188
-0.084051594 -0.085051619 -0.017925354
-0.084267065 -0.085592754 -0.018640172
-0.084947802 -0.085604742 -0.018109936
-0.085629456 -0.085616753 -0.017578984
-0.086124383 -0.085840486 -0.01754665
-0.086901374 -0.085746773 -0.016765028
-0.087396815 -0.08597073 -0.016732661
-0.087892242 -0.086194679 -0.016700294
-0.08857704 -0.086207107 -0.016167492
-0.10516809 -0.089655995 -0.0084295524
-0.10556701 -0.089987688 -0.0086521227
-0.10983478 -0.093725204 -0.011343723
-0.10982085 -0.094468035 -0.012575171
-0.10950109 -0.095516831 -0.014556264
-0.11040566 -0.095329873 -0.013518395
-0.11100477 -0.095451467 -0.013234147
-0.11150154 -0.095676035 -0.013201693
-0.11199832 -0.095900595 -0.01316924
-0.11301117 -0.095610835 -0.011875036
-0.11515168 -0.094924726 -0.0090188002
-0.11565116 -0.095150515 -0.0089861685
-0.13250193 -0.11164032 -0.022459747
-0.13288307 -0.11195748 -0.022672812
-0.1333724 -0.11217867 -0.022640845
-0.13715328 -0.10949926 -0.015185164
-0.13764755 -0.10972269 -0.015152875
-0.13814181 -0.10994612 -0.015120585
-0.1385248 -0.11026695 -0.015338203
-0.13991266 -0.10970981 -0.013301851
-0.13884482 -0.1112958 -0.01676969
-0.13933793 -0.1115187 -0.016737476
-0.13949695 -0.11203134 -0.017451091
-0.13921152 -0.11292732 -0.019153414
-0.13826557 -0.11439056 -0.022321178
-0.13875489 -0.11461174 -0.022289213
-0.13946518 -0.114643 -0.021766724
-0.084688507 -0.082131699 -0.011470341
-0.084717251 -0.08289548 -0.012703664
-0.084464982 -0.083977409 -0.014687764
-0.087375216 -0.086185679 -0.015966373
-0.087682098 -0.086621173 -0.016434578
-0.088177532 -0.086845122 -0.016402213
-0.10445553 -0.089860536 -0.0081938934
-0.10475359 -0.090297528 -0.0086717084
-0.10525358 -0.090523541 -0.0086390441
-0.10744759 -0.091967933 -0.0092403721
-0.10764122 -0.092507161 -0.0099708615
-0.10834436 -0.092523977 -0.0094296681
-0.10925353 -0.092331663 -0.0083777318
-0.10934298 -0.092975393 -0.0093644299
-0.10912537 -0.093928844 -0.011109105
-0.10911264 -0.094671324 -0.01234095
-0.1092018 -0.095308393 -0.013316935
-0.10929073 -0.095943749 -0.014290279
-0.11019502 -0.095757373 -0.013252049
-0.11069163 -0.095981851 -0.013219605
-0.11118823 -0.096206337 -0.013187164
-0.11199334 -0.096122846 -0.012398458
-0.11425345 -0.094591811 -0.0080510909
-0.13967144 -0.10818604 -0.0098526683
-0.14016907 -0.10841097 -0.0098201586
-0.14055395 -0.1087345 -0.01004105
-0.14161669 -0.10846615 -0.0087397741
-0.14109732 -0.1095773 -0.010988028
-0.14080569 -0.11048664 -0.01272002
-0.14107639 -0.11090558 -0.01319026
-0.14157166 -0.11112946 -0.013157906
-0.14027321 -0.11290075 -0.017122528
-0.0876607 -0.086836554 -0.015668089
-0.088061891 -0.087166168 -0.015886184
-0.088273659 -0.087706067 -0.016604271
-0.10373935 -0.090817422 -0.009200898
-0.10423883 -0.091043204 -0.0091682682
-0.1050415 -0.090953954 -0.0083708819
-0.10662611 -0.09302374 -0.010497648
-0.10631426 -0.094078943 -0.012489076
-0.10560209 -0.095539153 -0.015472221
-0.10609718 -0.095762961 -0.015439877
-0.10709663 -0.095473945 -0.014153888
-0.10799795 -0.095286928 -0.013115475
-0.10859624 -0.095408514 -0.012831091
-0.10909301 -0.095633075 -0.012798636
-0.10918211 -0.096268207 -0.013773011
-0.10916934 -0.097003728 -0.014995367
-0.11037869 -0.096511871 -0.013205075
-0.11087513 -0.096736282 -0.013172642
-0.11178248 -0.096550778 -0.012131842
-0.11383305 -0.095229544 -0.0082933409
-0.14190361 -0.10912035 -0.0084399702
-0.1417222 -0.10993546 -0.0099301105
-0.14221948 -0.11016025 -0.0098976241
-0.087851673 -0.087592795 -0.015620378
-0.088347271 -0.087816827 -0.015588
-0.08912757 -0.087724999 -0.014803333
-0.10312585 -0.091666467 -0.0099505326
-0.10362465 -0.091891937 -0.0099179456
-0.10560629 -0.094282165 -0.012254936
-0.10479689 -0.095843993 -0.015489307
-0.1050915 -0.096272238 -0.015957046
-0.10508566 -0.097005531 -0.017172022
-0.10638228 -0.096412957 -0.015141997
-0.10758462 -0.095919877 -0.013352658
-0.10828391 -0.095938906 -0.012816685
-0.10847559 -0.096471012 -0.013539346
-0.10816021 -0.097511917 -0.015513159
-0.10835131 -0.098040462 -0.016230416
-0.10894689 -0.098162398 -0.015948424
-0.11045999 -0.097368032 -0.013409706
-0.11126355 -0.097285815 -0.012622029
-0.11362111 -0.095659658 -0.0080253612
-0.089542262 -0.085901387 -0.010308927
-0.088421047 -0.087927803 -0.014569667
-0.089297354 -0.087730497 -0.013531464
-0.091617532 -0.085938394 -0.008683824
-0.10331562 -0.09167736 -0.008665123
-0.10489276 -0.095225416 -0.013248596
-0.10408785 -0.096780486 -0.016473169
-0.1042828 -0.097309045 -0.017188489
-0.10447735 -0.097836547 -0.017902367
-0.10527 -0.097755298 -0.017123997
-0.10737412 -0.096347079 -0.013086491
-0.10817481 -0.096263796 -0.012298219
-0.10867158 -0.096488357 -0.012265765
-0.10795034 -0.09793783 -0.015247801
-0.10925736 -0.097346582 -0.013208451
-0.11129086 -0.096032098 -0.0093832696
-0.11178949 -0.0962575 -0.0093506947
-0.11519866 -0.097199067 -0.0081369849
-0.090097621 -0.085476786 -0.0080030449
-0.089829579 -0.086556472 -0.010008715
-0.090328559 -0.086782031 -0.0099761169
-0.10368273 -0.096676618 -0.015491133
-0.10288581 -0.098220132 -0.018695092
-0.10337824 -0.098442726 -0.01866292
-0.10406931 -0.098463312 -0.018134659
-0.10456207 -0.098686054 -0.018102467
-0.10787322 -0.096056022 -0.011053723
-0.10837066 -0.09628088 -0.011021226
-0.10019808 -0.092365876 -0.01004032
-0.10598274 -0.094532959 -0.0089198593
-0.10267693 -0.098644033 -0.01843098
-0.10316937 -0.098866642 -0.018398812
-0.10386029 -0.098887503 -0.01787037
-0.10545132 -0.097996689 -0.015096619
-0.099986717 -0.092794828 -0.0097730681
-0.10626996 -0.09518782 -0.008619749
-0.10676876 -0.095413297 -0.0085871629
-0.15006575 -0.10589821 -0.046010245
-0.1494545 -0.10623001 -0.046012327
-0.1492666 -0.10741921 -0.04506268
-0.14893687 -0.10832456 -0.0444289
-0.1483243 -0.10865708 -0.04443099
-0.14771171 -0.1089896 -0.044433076
-0.14709914 -0.10932213 -0.044435162
-0.14803636 -0.11283103 -0.040920239
-0.14590853 -0.11325273 -0.041568484
-0.14403625 -0.11098475 -0.044445597
-0.14245437 -0.10930664 -0.046668328
-0.14156832 -0.10906564 -0.047302406
-0.14261414 -0.11284863 -0.04349602
-0.15216973 -0.10704804 -0.043019488
-0.15112911 -0.10652182 -0.043978032
-0.14980823 -0.10542658 -0.045568675
-0.14919698 -0.10575838 -0.045570757
-0.14900874 -0.10694696 -0.044620536
-0.14867881 -0.10785191 -0.043986376
-0.14806622 -0.10818443 -0.043988463
-0.14745365 -0.10851695 -0.043990552
-0.14684106 -0.10884948 -0.043992639
-0.14622849 -0.10918201 -0.043994725
-0.14631663 -0.11095427 -0.042401377
-0.14584297 -0.11157636 -0.042083554
-0.14439075 -0.11017957 -0.044000983
-0.14363919 -0.11022447 -0.044321325
-0.14219709 -0.10883543 -0.046227142
-0.14131124 -0.10859483 -0.046861604
-0.14097562 -0.10949846 -0.0462313
-0.14201927 -0.11328699 -0.042416021
-0.14140536 -0.11362024 -0.042418111
-0.14079146 -0.11395349 -0.042420201
-0.14017753 -0.11428674 -0.042422291
-0.14011465 -0.11578268 -0.041143078
-0.1399134 -0.11699162 -0.040181264
-0.15668212 -0.10984843 -0.037421402
-0.15606445 -0.11018372 -0.037423503
-0.1538561 -0.10734264 -0.040971596
-0.15223891 -0.10566977 -0.043212596
-0.15162607 -0.10600244 -0.043214682
-0.15087104 -0.10604917 -0.043535504
-0.15025845 -0.10638168 -0.043537591
-0.14950435 -0.10642822 -0.043858133
-0.14889205 -0.10676061 -0.043860219
-0.14842074 -0.10737926 -0.043543849
-0.14780815 -0.10771178 -0.043545935
-0.14719558 -0.1080443 -0.043548021
-0.14658299 -0.10837683 -0.043550111
-0.14597042 -0.10870935 -0.043552198
-0.14535783 -0.10904188 -0.043554284
-0.14474526 -0.1093744 -0.04355637
-0.14399354 -0.10941964 -0.043876905
-0.14324248 -0.10946485 -0.044197157
-0.14249207 -0.10951001 -0.044517137
-0.14146669 -0.10898195 -0.04547124
-0.14099318 -0.10960022 -0.045156259
-0.14148393 -0.11223506 -0.042611908
-0.14114673 -0.11314657 -0.041974619
-0.14053282 -0.11347982 -0.041976716
-0.13991889 -0.11381306 -0.041978806
-0.13944246 -0.1144364 -0.041660793
-0.13924059 -0.115642 -0.040700912
-0.13890055 -0.11655886 -0.040060297
-0.1541449 -0.10329673 -0.043399114
-0.1531035 -0.10277628 -0.0443555
-0.15249197 -0.10310823 -0.044357583
-0.15273656 -0.1051498 -0.042448588
-0.15212344 -0.10548262 -0.042450678
-0.15151033 -0.10581543 -0.042452767
-0.15075503 -0.10586225 -0.042774055
-0.15000038 -0.10590903 -0.043095067
-0.14924638 -0.10595578 -0.0434158
-0.14849304 -0.10600248 -0.043736253
-0.14759983 -0.10576382 -0.044374246
-0.14698833 -0.10609577 -0.044376329
-0.14623694 -0.10614235 -0.044695955
-0.14562568 -0.10647416 -0.044698033
-0.14501444 -0.10680597 -0.044700116
-0.14454225 -0.10742356 -0.044384662
-0.14393073 -0.10775551 -0.044386744
-0.14345789 -0.10837379 -0.044071019
-0.14284609 -0.10870589 -0.044073101
-0.14209619 -0.10875136 -0.044392996
-0.14148466 -0.1090833 -0.044395078
-0.14101076 -0.10970216 -0.044079352
-0.14122553 -0.11176179 -0.042168804
-0.14075007 -0.1123837 -0.041851155
-0.14027418 -0.11300614 -0.041533224
-0.13979788 -0.11362912 -0.041215025
-0.13932118 -0.11425265 -0.040896542
-0.13898151 -0.1151675 -0.040256653
-0.13864122 -0.11608395 -0.03961565
-0.13816299 -0.1167099 -0.039295778
-0.15478677 -0.10306071 -0.042316727
-0.15345739 -0.10197251 -0.043911658
-0.1527032 -0.10202087 -0.044231478
-0.15223435 -0.1026364 -0.043915823
-0.15247826 -0.10467674 -0.042005681
-0.15186514 -0.10500955 -0.042007767
-0.15125205 -0.10534236 -0.042009857
-0.15063894 -0.10567518 -0.042011943
-0.14960074 -0.10515095 -0.04297138
-0.14884724 -0.105198 -0.043292027
-0.14795373 -0.10496005 -0.043930404
-0.14734221 -0.10529199 -0.043932486
-0.14659066 -0.10533892 -0.044252299
-0.14583978 -0.10538581 -0.044571839
-0.14508955 -0.10543266 -0.0448911
-0.14447883 -0.10576417 -0.044893179
-0.14372949 -0.10581084 -0.045212165
-0.14325736 -0.10642722 -0.044897344
-0.14264666 -0.10675873 -0.044899423
-0.14203593 -0.10709025 -0.044901505
-0.14142521 -0.10742177 -0.044903584
-0.14122704 -0.10861147 -0.043953314
-0.14089063 -0.10951708 -0.043319128
-0.14069134 -0.11071209 -0.042364739
-0.14035374 -0.11162148 -0.041727792
-0.1398779 -0.11224332 -0.041409951
-0.13953914 -0.11315524 -0.040771343
-0.13906232 -0.11377855 -0.040452667
-0.1387224 -0.11469299 -0.039812393
-0.13838191 -0.11560903 -0.039171003
-0.13776641 -0.11594315 -0.0391731
-0.13715088 -0.11627727 -0.039175194
-0.1570245 -0.10597203 -0.037695456
-0.15452856 -0.10258786 -0.041874006
-0.15334269 -0.10178415 -0.043151692
-0.15258825 -0.10183263 -0.043471981
-0.15297623 -0.10415611 -0.041240815
-0.15250587 -0.10477471 -0.040922761
-0.15189223 -0.10510781 -0.040924851
-0.15099375 -0.1048693 -0.041566949
-0.14995509 -0.10434613 -0.042526957
-0.14920145 -0.10439353 -0.042847801
-0.14844844 -0.1044409 -0.043168362
-0.14769611 -0.10448821 -0.043488644
-0.14694442 -0.10453549 -0.04380865
-0.1460537 -0.10429841 -0.044445757
-0.14544298 -0.10462992 -0.044447836
-0.14469324 -0.10467708 -0.044767015
-0.14394414 -0.1047242 -0.045085914
-0.14333394 -0.10505543 -0.045087993
-0.14258575 -0.10510235 -0.045406617
-0.14197583 -0.10543345 -0.045408696
-0.14164093 -0.10633396 -0.044777408
-0.14103048 -0.10666533 -0.044779487
-0.14055718 -0.10728206 -0.044464476
-0.14077041 -0.10933183 -0.042558245
-0.14029557 -0.1099516 -0.042241313
-0.13982031 -0.11057191 -0.041924108
-0.13920747 -0.11090457 -0.041926194
-0.13873154 -0.11152557 -0.041608714
-0.13866621 -0.11301475 -0.040329754
-0.13832611 -0.11392812 -0.039689653
-0.13798541 -0.11484309 -0.03904843
-0.13750708 -0.11546823 -0.038728449
-0.13675493 -0.11551104 -0.039052624
-0.13613968 -0.11584501 -0.039054718
-0.15738116 -0.10516194 -0.037248131
-0.15488322 -0.10178234 -0.041429203
-0.15412678 -0.10183089 -0.041750796
-0.15337101 -0.1018794 -0.042072114
-0.15333119 -0.10334989 -0.040795624
-0.152861 -0.10396814 -0.040477376
-0.15224734 -0.10430124 -0.040479466
-0.15134856 -0.10406343 -0.041121949
-0.15030943 -0.10354131 -0.042082541
-0.14969712 -0.10387369 -0.042084627
-0.14894359 -0.10392129 -0.042405657
-0.14819071 -0.10396886 -0.042726409
-0.14729814 -0.10373206 -0.043365002
-0.14640714 -0.10349566 -0.044002488
-0.14565697 -0.10354331 -0.044321857
-0.1450465 -0.10387469 -0.044323936
-0.1441586 -0.10363848 -0.044959769
-0.14354867 -0.10396957 -0.044961847
-0.14266281 -0.10373349 -0.045596581
-0.14205341 -0.10406429 -0.045598656
-0.14158137 -0.10467884 -0.045284543
-0.14097169 -0.10500979 -0.045286622
-0.140499 -0.10562502 -0.044972237
-0.14016283 -0.10652569 -0.044340573
-0.14051244 -0.10885939 -0.042115912
-0.14017497 -0.10976638 -0.041479301
-0.13956213 -0.11009905 -0.041481391
-0.13881233 -0.110144 -0.041802965
-0.13819975 -0.11047652 -0.041805051
-0.13786013 -0.11138532 -0.041167893
-0.13765654 -0.11258484 -0.040209036
-0.13731571 -0.11349745 -0.039569106
-0.13711098 -0.11470235 -0.038606074
-0.13649572 -0.11503633 -0.038608171
-0.13601674 -0.11566155 -0.038287997
-0.13553736 -0.11628732 -0.037967548
-0.15853147 -0.10282426 -0.037765779
-0.15777016 -0.10287257 -0.038090371
-0.15523788 -0.10097682 -0.0409844
-0.15448129 -0.10102572 -0.041306186
-0.15386872 -0.10135824 -0.041308273
-0.15368615 -0.10254366 -0.040350433
-0.15307279 -0.10287663 -0.04035252
-0.15245941 -0.10320958 -0.040354609
-0.15170337 -0.10325756 -0.040676951
-0.15066379 -0.10273648 -0.041638121
-0.14990984 -0.10278457 -0.041959345
-0.14929779 -0.10311681 -0.041961428
-0.14868574 -0.10344905 -0.041963518
-0.14779235 -0.1032126 -0.042603042
-0.14662071 -0.10240956 -0.043876704
-0.14601025 -0.10274093 -0.043878783
-0.14539979 -0.1030723 -0.043880865
-0.14451157 -0.1028368 -0.044517078
-0.1437632 -0.10288466 -0.044835813
-0.14301547 -0.10293249 -0.04515427
-0.14226839 -0.10298027 -0.045472454
-0.14152196 -0.10302801 -0.045790367
-0.14077617 -0.10307572 -0.046108
-0.14016753 -0.10340609 -0.046110071
-0.13983181 -0.10430291 -0.045480754
-0.13949551 -0.10520127 -0.044850349
-0.13984263 -0.10752793 -0.042630125
-0.13977942 -0.1090063 -0.041356262
-0.13944116 -0.10991382 -0.040718719
-0.13855426 -0.10967135 -0.041360434
-0.13780522 -0.10971646 -0.041681919
-0.13719292 -0.11004885 -0.041684005
-0.13698873 -0.11124507 -0.040727075
-0.136784 -0.11244442 -0.039767642
-0.13644241 -0.1133569 -0.039127328
-0.13623653 -0.11456162 -0.038163714
-0.13575743 -0.11518664 -0.03784335
-0.13514192 -0.11552076 -0.037845448
-0.13466214 -0.11614647 -0.037524804
-0.15827218 -0.10234934 -0.037321132
-0.15721996 -0.10182741 -0.038290448
-0.15559255 -0.10017129 -0.040539593
-0.15483581 -0.10022055 -0.040861573
-0.15422322 -0.10055307 -0.040863659
-0.15404113 -0.10173744 -0.039905239
-0.15342775 -0.10207041 -0.039907329
-0.15281437 -0.10240336 -0.039909419
-0.15205818 -0.10245168 -0.040231954
-0.15130262 -0.10249997 -0.040554207
-0.15026404 -0.10198011 -0.041515123
-0.14965197 -0.10231234 -0.041517206
-0.1488988 -0.10236061 -0.04183834
-0.14814626 -0.10240882 -0.042159203
-0.14711399 -0.1018902 -0.043115955
-0.1462239 -0.1016556 -0.04375311
-0.14547448 -0.101704 -0.044072308
-0.1447257 -0.10175236 -0.044391237
-0.14411601 -0.1020833 -0.044393312
-0.14323005 -0.10184895 -0.045028262
-0.14262091 -0.10217961 -0.045030337
-0.14187433 -0.1022277 -0.045348439
-0.14112838 -0.10227575 -0.045666263
-0.14051975 -0.10260613 -0.045668334
-0.13991114 -0.1029365 -0.045670409
-0.13930252 -0.10326688 -0.04567248
-0.13882993 -0.10388029 -0.045358807
-0.13876522 -0.10534597 -0.044095162
-0.13979597 -0.10910795 -0.040273719
-0.13918287 -0.10944076 -0.040275808
-0.13856974 -0.10977358 -0.040277898
-0.13754725 -0.10924402 -0.041239586
-0.13679899 -0.1092893 -0.041560985
-0.13632263 -0.10990877 -0.041243758
-0.13598153 -0.11081669 -0.040606391
-0.13591145 -0.11230399 -0.039326243
-0.13584115 -0.11379647 -0.038041636
-0.13549812 -0.11471172 -0.037398703
-0.13488261 -0.11504585 -0.037400804
-0.1341316 -0.11508883 -0.037725553
-0.13392241 -0.11629739 -0.036758848
-0.157867 -0.10158918 -0.037199367
-0.1566707 -0.10078406 -0.03849018
-0.15576728 -0.10054911 -0.039134953
-0.15472151 -0.10003111 -0.040098965
-0.15468402 -0.10149965 -0.038817931
-0.15392634 -0.10154842 -0.039141219
-0.1533127 -0.10188152 -0.039143309
-0.15255597 -0.10193009 -0.039466318
-0.15179989 -0.10197862 -0.039789043
-0.15090226 -0.10174304 -0.040431567
-0.14986463 -0.10122438 -0.041392222
-0.14911166 -0.1012731 -0.041713275
-0.14850014 -0.10160504 -0.041715357
-0.14746742 -0.10108747 -0.04267269
-0.14657703 -0.10085356 -0.043310225
-0.14582746 -0.1009023 -0.043629616
-0.14480086 -0.10038697 -0.044581994
-0.14405333 -0.10043584 -0.044900287
-0.14358257 -0.10104829 -0.044586144
-0.14297342 -0.10137895 -0.044588219
-0.14236429 -0.10170961 -0.044590294
-0.14148059 -0.10147578 -0.045224525
-0.14087197 -0.10180616 -0.0452266
-0.14026335 -0.10213653 -0.045228671
-0.13965474 -0.1024669 -0.045230743
-0.13891007 -0.10251483 -0.045548484
-0.13843749 -0.10312766 -0.045234889
-0.13850826 -0.10487536 -0.04365455
-0.13926326 -0.10806101 -0.040471211
-0.13892455 -0.1089677 -0.039832901
-0.13831146 -0.10930052 -0.039834987
-0.13769835 -0.10963333 -0.039837074
-0.13667698 -0.10910395 -0.040799338
-0.13606468 -0.10943633 -0.040801425
-0.1355878 -0.11005615 -0.040483732
-0.1351105 -0.1106765 -0.040165763
-0.13503891 -0.11216356 -0.038884848
-0.13496707 -0.1136558 -0.037599474
-0.1343521 -0.11398962 -0.037601572
-0.1337371 -0.11432345 -0.037603665
-0.13325714 -0.11494809 -0.037283193
-0.15702613 -0.099976793 -0.038044412
-0.15641195 -0.10031018 -0.038046502
-0.15579778 -0.10064358 -0.038048591
-0.1551836 -0.10097697 -0.038050685
-0.15456942 -0.10131036 -0.038052775
-0.15381148 -0.10135923 -0.038376536
-0.15305418 -0.10140805 -0.038700014
-0.15229754 -0.10145683 -0.039023217
-0.15154158 -0.10150557 -0.039346132
-0.15064418 -0.10127039 -0.039989039
-0.14932434 -0.10018653 -0.041588321
-0.14871308 -0.10051833 -0.041590404
-0.14782086 -0.10028472 -0.042229425
-0.14693016 -0.10005152 -0.04286734
-0.14618042 -0.10010061 -0.043186925
-0.14501457 -0.099305011 -0.044456284
-0.14426728 -0.099354319 -0.044774495
-0.14365867 -0.099684685 -0.04477657
-0.14305003 -0.10001506 -0.044778641
-0.14244142 -0.10034543 -0.044780716
-0.14183281 -0.10067581 -0.044782788
-0.1410872 -0.10072451 -0.045100719
-0.14047883 -0.10105474 -0.045102794
-0.13987048 -0.10138498 -0.045104865
-0.13926212 -0.10171521 -0.045106936
-0.13865378 -0.10204544 -0.045109008
-0.13804543 -0.10237567 -0.045111079
-0.1381153 -0.104121 -0.043531153
-0.13886827 -0.10730199 -0.040348664
-0.13866627 -0.10849464 -0.039389987
-0.13791654 -0.1085403 -0.039712608
-0.13744006 -0.10916026 -0.039394166
-0.13682693 -0.10949308 -0.039396256
-0.136078 -0.10953831 -0.039718874
-0.13532972 -0.1095835 -0.040041205
-0.13485231 -0.11020365 -0.039723046
-0.13450964 -0.11111259 -0.039083805
-0.13416636 -0.11202313 -0.038443454
-0.13395768 -0.11322506 -0.037479788
-0.13334298 -0.11355874 -0.037481885
-0.13286306 -0.11418278 -0.037161499
-0.1326523 -0.11538962 -0.036194477
-0.15662238 -0.099219315 -0.037922595
-0.15600847 -0.099552557 -0.037924685
-0.15553902 -0.1001697 -0.037604913
-0.15506917 -0.10078736 -0.037284862
-0.15445472 -0.1011209 -0.037286952
-0.15369649 -0.10116987 -0.03761119
-0.15279566 -0.10093458 -0.03825672
-0.15203914 -0.10098357 -0.038580112
-0.15114091 -0.10074874 -0.039223965
-0.14967808 -0.099383093 -0.041144673
-0.14850368 -0.098587014 -0.042420302
-0.14775325 -0.098636732 -0.042740077
-0.14714332 -0.098967828 -0.042742155
-0.14639382 -0.099017367 -0.043061659
-0.14536694 -0.098504692 -0.044014353
-0.14392844 -0.097153649 -0.045910314
-0.14318353 -0.097203754 -0.046227079
-0.14257647 -0.097533278 -0.046229146
-0.14251843 -0.098983616 -0.04497081
-0.14191034 -0.099313706 -0.044972882
-0.14116535 -0.099362947 -0.045290459
-0.14014828 -0.098851368 -0.046237417
-0.13926953 -0.098620795 -0.046868056
-0.13852759 -0.098670207 -0.047184002
-0.13792132 -0.098999307 -0.047186065
-0.13758495 -0.099888861 -0.046560105
-0.13778913 -0.10190628 -0.044671606
-0.13785845 -0.1036506 -0.043090727
-0.137656 -0.10483336 -0.042139754
-0.13745303 -0.10601919 -0.041186314
-0.13765836 -0.10806745 -0.039269891
-0.13731812 -0.10897454 -0.038630258
-0.13670473 -0.10930751 -0.038632348
-0.13595554 -0.10935283 -0.038955431
-0.13534242 -0.10968564 -0.038957525
-0.13486461 -0.11030637 -0.038638614
-0.13425124 -0.11063933 -0.038640704
-0.13377273 -0.11126074 -0.038321517
-0.13342866 -0.1121718 -0.037680224
-0.133084 -0.11308444 -0.037037816
-0.13260396 -0.11370827 -0.03671724
-0.13198899 -0.1140421 -0.036719333
-0.15683264 -0.098129384 -0.037798796
-0.15621899 -0.098462492 -0.037800889
-0.15574983 -0.099078879 -0.037481196
-0.15542474 -0.099979736 -0.036838893
-0.15495464 -0.1005976 -0.036518373
-0.15419586 -0.10064681 -0.036843084
-0.15343775 -0.10069598 -0.037167508
-0.15253714 -0.1004611 -0.037813429
-0.15163809 -0.10022663 -0.038458224
-0.15003182 -0.098579668 -0.040701021
-0.14871615 -0.097503953 -0.042295311
-0.14796597 -0.097554125 -0.042615
-0.1473563 -0.097885072 -0.042617079
-0.14674665 -0.098216012 -0.042619158
-0.1457193 -0.097704373 -0.043572426
-0.14386623 -0.095518894 -0.046413373
-0.1432597 -0.095848136 -0.046415441
-0.14265318 -0.096177377 -0.046417508
-0.14204665 -0.096506618 -0.046419572
-0.14157684 -0.09711501 -0.046107296
-0.14083359 -0.097165093 -0.046423703
-0.14022706 -0.097494334 -0.046425771
-0.13962054 -0.097823575 -0.046427839
-0.13887845 -0.09787333 -0.04674397
-0.138137 -0.09792304 -0.047059834
-0.13753098 -0.098251998 -0.047061898
-0.13692497 -0.098580956 -0.047063962
-0.13645339 -0.099189721 -0.046752233
-0.13638486 -0.10064103 -0.045496419
-0.13699193 -0.10351114 -0.042652383
-0.13665287 -0.10440959 -0.042018991
-0.1361779 -0.10502509 -0.041702919
-0.13692345 -0.10821414 -0.038508348
-0.13631034 -0.10854696 -0.038510438
-0.13583295 -0.10916719 -0.038191333
-0.13521957 -0.10950015 -0.038193423
-0.1346062 -0.10983311 -0.038195509
-0.13412786 -0.11045417 -0.037876133
-0.13351421 -0.11078728 -0.037878223
-0.13290058 -0.11112037 -0.037880313
-0.13282503 -0.11261015 -0.03659375
-0.13234487 -0.11323377 -0.03627298
-0.13172989 -0.11356761 -0.036275074
-0.13111492 -0.11390143 -0.036277167
-0.15747823 -0.097888358 -0.036709186
-0.15686406 -0.098221749 -0.036711276
-0.15624988 -0.098555148 -0.036713369
-0.15578033 -0.099172108 -0.036392931
-0.15545499 -0.10007383 -0.035749119
-0.15469566 -0.1001233 -0.036074307
-0.153937 -0.10017272 -0.036399208
-0.153179 -0.1002221 -0.036723826
-0.1519929 -0.099420764 -0.038013231
-0.15095295 -0.098904669 -0.038977865
-0.14906913 -0.096702255 -0.041852619
-0.1483188 -0.096752778 -0.042172499
-0.14770912 -0.097083718 -0.042174581
-0.14695971 -0.097134046 -0.042494185
-0.14607167 -0.096904062 -0.043130502
-0.14421724 -0.094721675 -0.045973152
-0.14333574 -0.094494842 -0.046603478
-0.14272973 -0.0948238 -0.046605542
-0.14239764 -0.095709398 -0.045979351
-0.14179112 -0.096038632 -0.045981418
-0.1411846 -0.096367873 -0.045983482
-0.14044183 -0.096418254 -0.046299808
-0.13983555 -0.096747354 -0.046301875
-0.1392293 -0.097076446 -0.046303939
-0.13862303 -0.097405545 -0.046306003
-0.13801678 -0.097734652 -0.04630807
-0.13727568 -0.097784415 -0.04662412
-0.13680422 -0.098392844 -0.046312198
-0.13646691 -0.099281885 -0.045685485
-0.1365332 -0.10101604 -0.044110879
-0.13592511 -0.10134614 -0.044112951
-0.13531701 -0.10167623 -0.044115022
-0.13484311 -0.10228843 -0.043800946
-0.13666515 -0.10774109 -0.038065437
-0.13618791 -0.10836097 -0.037746143
-0.13571025 -0.10898139 -0.037426572
-0.13509662 -0.1093145 -0.037428658
-0.13461828 -0.10993561 -0.037108809
-0.13386932 -0.10998069 -0.037432838
-0.13325569 -0.1103138 -0.037434928
-0.13277654 -0.11093535 -0.037115082
-0.13229699 -0.11155742 -0.036794957
-0.13208579 -0.11275927 -0.035828721
-0.13147081 -0.1130931 -0.035830814
-0.13085583 -0.11342692 -0.035832908
-0.13037461 -0.11405118 -0.035511669
-0.15873967 -0.097313225 -0.035615582
-0.15739767 -0.096234195 -0.037229914
-0.1567843 -0.096567146 -0.037232004
-0.1566053 -0.09774787 -0.036267597
-0.15599114 -0.098081261 -0.036269687
-0.15610078 -0.099833973 -0.034655347
-0.15548527 -0.10016809 -0.034657445
-0.15443669 -0.099649005 -0.035630237
-0.15367813 -0.099698633 -0.035955332
-0.15263373 -0.099181063 -0.036924746
-0.15159205 -0.098664843 -0.037891641
-0.1502696 -0.09758614 -0.03949615
-0.14867161 -0.095951423 -0.041729998
-0.14792177 -0.096002243 -0.042049799
-0.14717257 -0.096053019 -0.042369325
-0.1457288 -0.09470772 -0.04427034
-0.14429244 -0.093369357 -0.04616157
-0.14341165 -0.093143873 -0.046791196
-0.14294323 -0.093749784 -0.046479613
-0.1423375 -0.094078608 -0.046481676
-0.14214212 -0.09524142 -0.045541197
-0.1415356 -0.095570654 -0.045543261
-0.14079268 -0.095621377 -0.04585978
-0.14018641 -0.095950469 -0.045861844
-0.13958016 -0.096279569 -0.045863908
-0.13910948 -0.096887611 -0.045551524
-0.13850296 -0.097216852 -0.045553591
-0.13789643 -0.097546086 -0.045555659
-0.13796577 -0.099275775 -0.043981448
-0.13735795 -0.099605724 -0.043983515
-0.13648047 -0.099374205 -0.044616908
-0.13587315 -0.099703863 -0.044618975
-0.13526584 -0.10003353 -0.044621047
-0.13452466 -0.1000824 -0.044938367
-0.13445275 -0.10153712 -0.043677807
-0.13451484 -0.1032799 -0.042095467
-0.13579375 -0.10760084 -0.037624616
-0.13558747 -0.10879543 -0.036661141
-0.13497356 -0.10912868 -0.036663231
-0.13435964 -0.10946193 -0.03666532
-0.13388078 -0.11008336 -0.036345001
-0.1334015 -0.11070535 -0.036024403
-0.13265242 -0.11075015 -0.036349185
-0.13203825 -0.11108355 -0.036351275
-0.13142407 -0.11141694 -0.036353372
-0.13094373 -0.1120395 -0.036032774
-0.13059674 -0.11295243 -0.035388649
-0.12998177 -0.11328626 -0.035390742
-0.15786599 -0.097172618 -0.03517361
-0.15696074 -0.096940599 -0.035821822
-0.15634656 -0.097273991 -0.035823919
-0.15602185 -0.098173663 -0.035179891
-0.15598652 -0.099643454 -0.033886373
-0.15537073 -0.099977717 -0.03388847
-0.15417773 -0.099174708 -0.035186172
-0.15341929 -0.099224538 -0.035511464
-0.15223226 -0.098424584 -0.036803529
-0.15119155 -0.09790957 -0.037770156
-0.14958802 -0.096271046 -0.040013094
-0.14827445 -0.095201239 -0.041607492
-0.14710599 -0.094414756 -0.042878475
-0.14552575 -0.092797995 -0.045090649
-0.14450528 -0.09229596 -0.04603583
-0.14376205 -0.092348024 -0.046351731
-0.1432938 -0.0929536 -0.046039958
-0.14268805 -0.093282409 -0.046042021
-0.14221913 -0.09388864 -0.045729984
-0.14216055 -0.095330223 -0.044472955
-0.1416904 -0.095938638 -0.044159573
-0.14108309 -0.096268304 -0.04416164
-0.14006701 -0.095761158 -0.045109242
-0.13946049 -0.096090391 -0.045111306
-0.13885395 -0.096419632 -0.045113374
-0.13824743 -0.096748874 -0.045115441
-0.137776 -0.097357377 -0.044802602
-0.13770971 -0.098806784 -0.043542352
-0.13710187 -0.099136733 -0.043544423
-0.13622461 -0.098905616 -0.044178188
-0.1356173 -0.099235281 -0.044180259
-0.13487597 -0.099284492 -0.044497769
-0.13426892 -0.099614017 -0.044499837
-0.13392898 -0.10050526 -0.043870755
-0.13425811 -0.10280969 -0.041655231
-0.13391684 -0.10370716 -0.04102125
-0.13532883 -0.10832176 -0.036217652
-0.13471492 -0.10865501 -0.036219746
-0.1342362 -0.10927609 -0.035899229
-0.13375708 -0.10989773 -0.035578437
-0.13341255 -0.11080878 -0.034933917
-0.1325282 -0.11056481 -0.035582624
-0.13164537 -0.11032124 -0.036230199
-0.13089772 -0.11036617 -0.036554612
-0.13041756 -0.11098773 -0.036234383
-0.12993696 -0.11160984 -0.035913877
-0.1293228 -0.11194323 -0.035915967
-0.12924096 -0.11343574 -0.03462486
-0.157607 -0.096698321 -0.03472954
-0.156702 -0.096466713 -0.035378143
-0.15623264 -0.097082771 -0.035057124
-0.15634286 -0.098834068 -0.033439435
-0.15572709 -0.09916833 -0.033441532
-0.1551113 -0.099502593 -0.03344363
-0.15406275 -0.098984152 -0.034418434
-0.15316042 -0.098750457 -0.035067588
-0.15197384 -0.097951323 -0.036360424
-0.15093346 -0.09743692 -0.037327629
-0.14890818 -0.094959341 -0.0405287
-0.14745805 -0.093615137 -0.042436928
-0.14559986 -0.091447316 -0.045279823
-0.14485584 -0.091499768 -0.045596179
-0.14411245 -0.091552168 -0.045912262
-0.14364435 -0.092157401 -0.045600303
-0.14331318 -0.093040325 -0.044973519
-0.14270693 -0.093369424 -0.044975586
-0.14251186 -0.094532318 -0.044032358
-0.14217901 -0.095419183 -0.043402873
-0.14157145 -0.095748983 -0.043404941
-0.14110063 -0.096358106 -0.043090831
-0.14021993 -0.09612938 -0.043724991
-0.13920496 -0.095622413 -0.044673152
-0.13859843 -0.095951654 -0.044675216
-0.13799192 -0.096280888 -0.044677284
-0.13738538 -0.096610129 -0.044679351
-0.13691357 -0.097218573 -0.044366326
-0.13630679 -0.097547956 -0.044368394
-0.1355658 -0.097597845 -0.044685546
-0.13509321 -0.098206721 -0.044372529
-0.13448642 -0.098536104 -0.044374593
-0.13361292 -0.098305903 -0.045006562
-0.13300665 -0.098634996 -0.045008626
-0.13346587 -0.10121048 -0.042484589
-0.13339195 -0.1026703 -0.041217074
-0.13224915 -0.10187095 -0.042488735
-0.13164079 -0.10220118 -0.042490806
-0.13384238 -0.10851457 -0.035778347
-0.13376845 -0.11000046 -0.03448756
-0.13355888 -0.11120184 -0.03351704
-0.13226934 -0.11009071 -0.035138749
-0.13125284 -0.1095596 -0.036109228
-0.13050568 -0.10960484 -0.036433551
-0.12989229 -0.10993779 -0.036435638
-0.12954502 -0.1108473 -0.035792984
-0.12893109 -0.11118055 -0.035795078
-0.12844987 -0.11180274 -0.035474375
-0.15749353 -0.096506685 -0.033961605
-0.15644324 -0.095992826 -0.034934465
-0.15597378 -0.096608683 -0.034613252
-0.15608343 -0.098358944 -0.032994594
-0.15546764 -0.098693207 -0.032996692
-0.15499653 -0.099311851 -0.032673795
-0.15380366 -0.098509654 -0.033974174
-0.15261494 -0.097710244 -0.035270035
-0.15143032 -0.096913606 -0.036561396
-0.15024984 -0.096119732 -0.037848286
-0.14823014 -0.093651041 -0.041042965
-0.14595056 -0.090650789 -0.044839982
-0.14520639 -0.090703577 -0.045156524
-0.14460064 -0.091032386 -0.045158587
-0.14440818 -0.092191279 -0.044216406
-0.14380166 -0.092520513 -0.044218473
-0.14360793 -0.093682811 -0.043273859
-0.14396612 -0.095965661 -0.04105749
-0.14335698 -0.096296318 -0.041059565
-0.14247243 -0.096067153 -0.041696843
-0.14172655 -0.096117839 -0.0420161
-0.14084455 -0.095889121 -0.042651735
-0.13996406 -0.095660798 -0.043286271
-0.13922086 -0.095711544 -0.043604165
-0.13834292 -0.095483676 -0.044237066
-0.1377364 -0.095812909 -0.04423913
-0.13712986 -0.09614215 -0.044241197
-0.13665794 -0.096750394 -0.043927982
-0.13605116 -0.097079776 -0.04393005
-0.13531028 -0.097129866 -0.044247396
-0.13470376 -0.097459108 -0.04424946
-0.13423079 -0.098067917 -0.043936253
-0.133624 -0.0983973 -0.043938316
-0.13315037 -0.099006772 -0.043624841
-0.13374463 -0.10186929 -0.040774766
-0.13313523 -0.1022001 -0.040776841
-0.13199286 -0.10140156 -0.042049259
-0.13138449 -0.10173179 -0.04205133
-0.13493878 -0.11092652 -0.032092255
-0.1347302 -0.11213227 -0.03111605
-0.13384122 -0.11188616 -0.031770639
-0.13268368 -0.11106098 -0.033074297
-0.13139603 -0.10995016 -0.034696966
-0.13024725 -0.10913157 -0.035990447
-0.12963387 -0.10946453 -0.035992537
-0.12902051 -0.10979749 -0.03599463
-0.12840714 -0.11013044 -0.035996716
-0.12805855 -0.11104012 -0.035353679
-0.15618449 -0.095518947 -0.034490783
-0.15600449 -0.096699834 -0.033521537
-0.15582402 -0.097883821 -0.03254975
-0.15520823 -0.098218083 -0.032551851
-0.15488167 -0.099120945 -0.031903282
-0.15383251 -0.098602548 -0.032880951
-0.1523563 -0.097236566 -0.034826551
-0.15102988 -0.096159093 -0.036440492
-0.14928584 -0.094246015 -0.039007042
-0.14727463 -0.091790706 -0.042189863
-0.14569525 -0.090183206 -0.044402204
-0.14508925 -0.090512164 -0.044404265
-0.14475919 -0.091394052 -0.043776184
-0.1445667 -0.092554905 -0.042831
-0.14437369 -0.093718745 -0.041883375
-0.14459588 -0.095724531 -0.039978687
-0.14398621 -0.09605547 -0.039980765
-0.1432384 -0.096106246 -0.040301319
-0.14235356 -0.095877148 -0.040939521
-0.14147025 -0.095648445 -0.041576631
-0.14058848 -0.095420137 -0.042212635
-0.13970821 -0.095192216 -0.042847548
-0.13896511 -0.095243163 -0.043165632
-0.13808739 -0.09501569 -0.043798909
-0.13775103 -0.095902205 -0.043169767
-0.13714398 -0.096231729 -0.043171838
-0.13707657 -0.097679824 -0.041908234
-0.13633364 -0.097729765 -0.04222713
-0.13505475 -0.096661888 -0.043809239
-0.13444823 -0.096991129 -0.043811306
-0.13397516 -0.097599737 -0.043497909
-0.13350168 -0.098208867 -0.043184243
-0.13296448 -0.11174506 -0.031327125
-0.1315396 -0.11034174 -0.033281017
-0.13038908 -0.10952141 -0.034578651
-0.12937547 -0.10899127 -0.035549436
-0.1287621 -0.10932422 -0.035551526
-0.12801634 -0.10936955 -0.03587595
-0.12753534 -0.10999013 -0.035555702
-0.1273182 -0.11118837 -0.034589112
-0.16364621 -0.10851838 -0.018183406
-0.15767112 -0.098444171 -0.03014412
-0.15618037 -0.097074434 -0.032102812
-0.15585466 -0.09797629 -0.031453855
-0.15523835 -0.098310843 -0.031455953
-0.15462202 -0.098645404 -0.031458054
-0.15371723 -0.098411493 -0.032111205
-0.15209766 -0.096762888 -0.034383062
-0.15048791 -0.095124282 -0.036641136
-0.1486067 -0.092937507 -0.039523728
-0.14701855 -0.091321714 -0.041750763
-0.14627168 -0.091374375 -0.042069592
-0.14511019 -0.090596832 -0.043335963
-0.14491816 -0.091756642 -0.042390212
-0.14500272 -0.093476087 -0.040807143
-0.14494871 -0.094923183 -0.039536186
-0.14447771 -0.095534049 -0.03921932
-0.14386778 -0.095865138 -0.039221399
-0.14284372 -0.095356323 -0.040179476
-0.14195962 -0.09512797 -0.040817514
-0.14080355 -0.094342627 -0.042088218
-0.13978741 -0.093837745 -0.043038897
-0.13904493 -0.093889229 -0.043356624
-0.13843839 -0.09421847 -0.043358687
-0.13783187 -0.094547704 -0.043360755
-0.13749528 -0.095433824 -0.042731237
-0.13688824 -0.095763348 -0.042733304
-0.13682038 -0.097210638 -0.041468944
-0.13607758 -0.097260781 -0.041788034
-0.13493308 -0.096472792 -0.04305543
-0.13405921 -0.096244365 -0.043688532
-0.13331981 -0.096294768 -0.044005707
-0.13284667 -0.096902557 -0.04369266
-0.1327046 -0.1112691 -0.030881504
-0.13141465 -0.11015589 -0.032511782
-0.13039751 -0.10962377 -0.03348738
-0.12951615 -0.10938092 -0.034137063
-0.1287691 -0.10942627 -0.034462523
-0.12789032 -0.10918391 -0.035110511
-0.12767363 -0.11038109 -0.034143336
-0.12705944 -0.11071449 -0.034145426
-0.16644838 -0.112422 -0.012286304
-0.16098161 -0.10337063 -0.023095282
-0.15799645 -0.099107943 -0.028387221
-0.15664788 -0.098018385 -0.030027222
-0.15588537 -0.098068923 -0.030356042
-0.15512353 -0.098119415 -0.030684577
-0.15450694 -0.098454118 -0.030686678
-0.15360187 -0.098220266 -0.031340785
-0.15198193 -0.096571535 -0.033615977
-0.1500884 -0.094371535 -0.036520351
-0.14834987 -0.092467099 -0.039083302
-0.14704123 -0.091407336 -0.040676955
-0.14615464 -0.091182671 -0.041313738
-0.14540814 -0.091235392 -0.041632753
-0.14549381 -0.092954449 -0.04004737
-0.14544061 -0.094401263 -0.03877455
-0.14510871 -0.095292233 -0.038137533
-0.14435945 -0.095343396 -0.038459294
-0.14319624 -0.094555661 -0.039737359
-0.14244941 -0.09460704 -0.040057741
-0.14142893 -0.094100721 -0.041013088
-0.14013855 -0.093040176 -0.04259849
-0.13926019 -0.092814699 -0.043231979
-0.13865392 -0.093143791 -0.043234047
-0.13764271 -0.092641532 -0.044181213
-0.13703723 -0.092970207 -0.044183277
-0.13643175 -0.093298882 -0.044185337
-0.13622884 -0.094460189 -0.043242306
-0.13575676 -0.095067441 -0.0429288
-0.13515022 -0.09539669 -0.042930868
-0.13427652 -0.095169283 -0.043563802
-0.13287327 -0.093833163 -0.045451988
-0.13160886 -0.092779525 -0.047018427
-0.12982716 -0.090633363 -0.049819592
-0.1292263 -0.090959519 -0.049821638
-0.13142401 -0.11025903 -0.031416327
-0.13053983 -0.1100151 -0.032069232
-0.12939057 -0.10919497 -0.033369534
-0.12864323 -0.10924043 -0.033695474
-0.12802905 -0.10957381 -0.033697568
-0.12741488 -0.10990721 -0.033699658
-0.1271973 -0.11110689 -0.032729376
-0.16696776 -0.11188899 -0.011484864
-0.16389626 -0.10750324 -0.016936943
-0.15997662 -0.10144716 -0.024307404
-0.15935515 -0.1017845 -0.024309522
-0.15653352 -0.097826578 -0.029254207
-0.15577075 -0.097877219 -0.029583512
-0.15515362 -0.098212212 -0.029585613
-0.15424719 -0.097978368 -0.030241255
-0.15319839 -0.097461253 -0.031221524
-0.15158038 -0.095815539 -0.033496086
-0.14983065 -0.093899496 -0.036078401
-0.14823332 -0.092275217 -0.038323548
-0.14720361 -0.091771044 -0.039282791
-0.14645505 -0.091823623 -0.039603367
-0.14584617 -0.092154138 -0.039605442
-0.14579359 -0.093599565 -0.038331859
-0.14546201 -0.094489843 -0.037694454
-0.14485155 -0.094821222 -0.037696533
-0.14354876 -0.093755007 -0.039295238
-0.14280178 -0.093806721 -0.03961581
-0.14191808 -0.093579806 -0.04025406
-0.14089918 -0.093075246 -0.041208331
-0.13961104 -0.092017815 -0.042791951
-0.13859861 -0.091517009 -0.043739684
-0.13785821 -0.091569372 -0.04405643
-0.13644758 -0.090244204 -0.045940932
-0.1358439 -0.090571895 -0.045942988
-0.13564087 -0.091726221 -0.045005038
-0.13530356 -0.09260688 -0.044379085
-0.13483208 -0.093212046 -0.044066738
-0.13422686 -0.093540579 -0.044068802
-0.13362163 -0.09386912 -0.044070862
-0.13195792 -0.091986731 -0.04658065
-0.13030553 -0.090117171 -0.049073353
-0.12931357 -0.089623041 -0.050005019
-0.12845372 -0.089402847 -0.050625496
-0.12837233 -0.090822078 -0.049389631
-0.12904949 -0.11020842 -0.03162878
-0.12790281 -0.10938796 -0.032929849
-0.12755318 -0.11029857 -0.032283019
-0.16670148 -0.11140133 -0.011028278
-0.16363189 -0.10701904 -0.016483603
-0.1597148 -0.10096765 -0.023858454
-0.15909332 -0.101305 -0.023860568
-0.15627342 -0.097350203 -0.028808201
-0.15565602 -0.097685352 -0.028810304
-0.15503863 -0.098020487 -0.028812407
-0.15384306 -0.097218789 -0.030122366
-0.15279526 -0.096702881 -0.031102363
-0.15146445 -0.095623761 -0.032728616
-0.14957292 -0.093427457 -0.035636451
-0.14811668 -0.092083164 -0.037563138
-0.14736642 -0.092135698 -0.03788501
-0.1467565 -0.092466779 -0.037887089
-0.14628609 -0.093076847 -0.03756937
-0.14623415 -0.094527006 -0.036289509
-0.14520481 -0.094018832 -0.037253462
-0.14403966 -0.093233034 -0.038534157
-0.14329213 -0.093285002 -0.038855195
-0.14254525 -0.093336932 -0.039175957
-0.14152467 -0.092832252 -0.040132448
-0.13982597 -0.090944551 -0.042667601
-0.13840848 -0.089619279 -0.044558089
-0.13632989 -0.086935066 -0.04799718
-0.1353294 -0.086444572 -0.048931014
-0.13512665 -0.087588221 -0.048001278
-0.1347905 -0.08846122 -0.047380816
-0.13471961 -0.089884296 -0.046134658
-0.13438223 -0.090761498 -0.045511011
-0.13444373 -0.0924685 -0.043944117
-0.13397188 -0.093073599 -0.043631583
-0.13336666 -0.09340214 -0.043633647
-0.13196753 -0.092072263 -0.045519233
-0.13018294 -0.08992698 -0.048328526
-0.12893069 -0.088887013 -0.049880866
-0.12794217 -0.08839529 -0.050809927
-0.12734285 -0.08872062 -0.050811969
-0.12817466 -0.11006762 -0.031186229
-0.16521077 -0.1085455 -0.013309641
-0.16291466 -0.10565694 -0.017044716
-0.15945297 -0.10048813 -0.023409503
-0.15765415 -0.098532178 -0.026058905
-0.15557742 -0.096022785 -0.029344106
-0.15496083 -0.09635748 -0.029346207
-0.15419973 -0.096408702 -0.029675039
-0.15329532 -0.096176736 -0.030329745
-0.15224914 -0.095662646 -0.031308617
-0.15149121 -0.095714025 -0.031635735
-0.1494565 -0.093235329 -0.034872569
-0.14814039 -0.092169777 -0.036481526
-0.14738949 -0.092222311 -0.036804147
-0.14677902 -0.09255369 -0.036806226
-0.146448 -0.093443833 -0.036166951
-0.14583701 -0.093775488 -0.036169033
-0.14439231 -0.09243203 -0.038091846
-0.14364463 -0.092484348 -0.038413074
-0.1430355 -0.092815004 -0.038415149
-0.14201383 -0.092310786 -0.039373036
-0.14004073 -0.089872196 -0.042543363
-0.138219 -0.087728038 -0.045373701
-0.13627797 -0.085328661 -0.048492871
-0.13554424 -0.085383266 -0.04880517
-0.13507627 -0.085980974 -0.048496965
-0.13447542 -0.086307131 -0.048499007
-0.13427158 -0.087450601 -0.047568724
-0.13393469 -0.088323489 -0.046947889
-0.13346483 -0.088923983 -0.046638105
-0.13392267 -0.091449685 -0.04413585
-0.13385002 -0.092883371 -0.042879317
-0.13391055 -0.094600067 -0.041302063
-0.13277176 -0.093817994 -0.042568117
-0.13084655 -0.091383375 -0.04571126
-0.12919794 -0.089515872 -0.048206922
-0.12768969 -0.08793287 -0.050376981
-0.1263186 -0.08662983 -0.052227084
-0.11115883 -0.081142694 -0.064642601
-0.11057123 -0.081461653 -0.064644597
-0.11158024 -0.090229899 -0.056243747
-0.16433698 -0.10688269 -0.014217156
-0.16204917 -0.10400735 -0.01794119
-0.15919116 -0.10000862 -0.022960551
-0.15695421 -0.097199127 -0.026600065
-0.15502793 -0.094981313 -0.029552253
-0.15441188 -0.095315717 -0.029554352
-0.1539401 -0.095933162 -0.029229809
-0.15332375 -0.096267715 -0.02923191
-0.15199007 -0.095188141 -0.030864356
-0.15123224 -0.095239729 -0.031191669
-0.14933997 -0.093043022 -0.034108024
-0.14816414 -0.092256539 -0.035398044
-0.14727236 -0.092030078 -0.036042418
-0.14680158 -0.09264075 -0.035723493
-0.14619058 -0.092972413 -0.035725575
-0.14488378 -0.091909267 -0.037329916
-0.14413558 -0.091961831 -0.03765161
-0.14352617 -0.092292622 -0.037653688
-0.1423659 -0.09151116 -0.038931489
-0.14039128 -0.089076005 -0.042103708
-0.13829894 -0.08638861 -0.045561664
-0.13609323 -0.083455957 -0.049296945
-0.1354934 -0.083781555 -0.049298987
-0.13502601 -0.084377833 -0.048991382
-0.13455822 -0.084974609 -0.048683517
-0.13422227 -0.085843526 -0.048064958
-0.13375354 -0.086441696 -0.047756307
-0.1334165 -0.087312981 -0.047136161
-0.13228823 -0.086549953 -0.04838153
-0.13260865 -0.088786185 -0.046204992
-0.13358153 -0.095575735 -0.039596688
-0.13230854 -0.094512485 -0.041184444
-0.12998927 -0.091245405 -0.045277596
-0.12847351 -0.089651853 -0.047463775
-0.12722491 -0.088612482 -0.049017955
-0.1256787 -0.10481798 -0.035153549
-0.12559089 -0.10629165 -0.033866718
-0.12497832 -0.10662418 -0.033868805
-0.11137898 -0.080106974 -0.06451299
-0.11055262 -0.079899453 -0.065108001
-0.10937119 -0.078905299 -0.066588216
-0.16178563 -0.10352465 -0.017489256
-0.15892933 -0.099529102 -0.022511598
-0.15625611 -0.095869578 -0.027139807
-0.15476839 -0.094505981 -0.029107219
-0.15415235 -0.094840392 -0.029109318
-0.15396911 -0.096024007 -0.028130054
-0.15335226 -0.096358858 -0.028132156
-0.15173097 -0.094713636 -0.030420097
-0.1506882 -0.094202116 -0.031397577
-0.14936484 -0.093130767 -0.033019662
-0.14832875 -0.092623085 -0.033990368
-0.1477167 -0.092955321 -0.033992454
-0.14668411 -0.092448518 -0.034960639
-0.14579363 -0.092221886 -0.035605397
-0.14462695 -0.09143886 -0.03688949
-0.14401728 -0.091769807 -0.036891568
-0.14326943 -0.091822423 -0.037213452
-0.1421096 -0.091041774 -0.038492013
-0.13864784 -0.085596152 -0.045124073
-0.13644035 -0.082667537 -0.048861586
-0.13544269 -0.082183927 -0.049791545
-0.13537328 -0.08358907 -0.04855584
-0.13517085 -0.084727615 -0.047626808
-0.13456999 -0.085053772 -0.047628857
-0.13396914 -0.085379928 -0.047630902
