# .PCD v0.7 - Point Cloud Data file format
VERSION 0.7
FIELDS x y z
SIZE 4 4 4
TYPE F F F
COUNT 1 1 1
WIDTH 1261
HEIGHT 1
VIEWPOINT 0 0 0 1 0 0 0
POINTS 1261
DATA ascii
-0.13888632 0.0002220295 -0.022359876
-0.13917232 -0.00029709135 -0.022847483
-0.13910575 -0.0012391929 -0.024114411
-0.13845533 -0.0028792573 -0.026668685
-0.13792552 -0.004368783 -0.02894878
-0.13751461 -0.0057107657 -0.030959697
-0.13802952 -0.0059435251 -0.030926058
-0.13385913 -0.013415644 -0.043350812
-0.13302065 -0.015234534 -0.04626001
-0.1334129 -0.015594177 -0.04647119
-0.13391668 -0.0158219 -0.04643828
-0.13442044 -0.016049623 -0.046405368
-0.1349242 -0.016277345 -0.046372458
-0.13509122 -0.016899114 -0.047070991
-0.13537002 -0.017388694 -0.047524933
-0.13587293 -0.017616026 -0.047492076
-0.13637583 -0.017843358 -0.047459222
-0.13710423 -0.017809069 -0.046939485
-0.13760749 -0.018036555 -0.046906609
-0.13822395 -0.018133255 -0.046630017
-0.13872737 -0.018360822 -0.046597127
-0.1392308 -0.018588388 -0.04656424
-0.13973422 -0.018815953 -0.046531349
-0.14012375 -0.019173998 -0.046742223
-0.14039908 -0.019662017 -0.047196388
-0.140902 -0.019889351 -0.047163531
-0.14174792 -0.019726221 -0.046399798
-0.14271051 -0.01943223 -0.04539001
-0.14321463 -0.01966011 -0.045357078
-0.14291362 -0.020798679 -0.047032114
-0.14341652 -0.021026012 -0.046999261
-0.053695701 0.02450249 -0.045423046
-0.054203834 0.024272792 -0.04538985
-0.054626625 0.023896478 -0.045603089
-0.054793078 0.023081714 -0.046553984
-0.05521493 0.02270646 -0.046766452
-0.055722013 0.022477241 -0.046733327
-0.056229092 0.022248024 -0.046700198
-0.056650303 0.021873187 -0.046912543
-0.056985293 0.021353275 -0.047369886
-0.057319827 0.020834081 -0.047826596
-0.057826031 0.020605259 -0.047793526
-0.058332238 0.020376435 -0.047760457
-0.058751997 0.020002892 -0.047972064
-0.059258025 0.019774148 -0.047939006
-0.059764054 0.019545404 -0.047905948
-0.060270086 0.01931666 -0.04787289
-0.060776114 0.019087916 -0.047839832
-0.061282147 0.01885917 -0.047806773
-0.061875671 0.018774673 -0.047528964
-0.062469609 0.018690117 -0.047250964
-0.062975988 0.018461214 -0.047217883
-0.063394286 0.018088203 -0.047429755
-0.063812301 0.01771545 -0.047641482
-0.06414178 0.0171993 -0.048097529
-0.064735875 0.017114289 -0.047820017
-0.075758569 0.033919461 -0.018764069
-0.076960348 0.034772325 -0.016869863
-0.07768216 0.03484622 -0.016302256
-0.078990467 0.035861336 -0.01412746
-0.07991273 0.03625118 -0.013018012
-0.081530593 0.037750471 -0.010011306
-0.082461596 0.038145192 -0.0088898167
-0.13815494 0.0097216684 -0.0094756875
-0.13820809 0.0088914847 -0.010520656
-0.1383801 0.0082106339 -0.011293762
-0.13855174 0.007531255 -0.012065197
-0.13860412 0.006707211 -0.013102679
-0.13889392 0.0061768945 -0.013603076
-0.13906445 0.0055019031 -0.01436953
-0.13935339 0.0049734036 -0.014868119
-0.13893044 0.003578742 -0.016958209
-0.13862778 0.0023353645 -0.018772969
-0.13820915 0.00095566158 -0.020840779
-0.13849613 0.0004350956 -0.021330331
-0.13866527 -0.00022658036 -0.022080377
-0.13895142 -0.00074538263 -0.022568179
-0.13888526 -0.0016866899 -0.023835603
-0.13893631 -0.0024842678 -0.02483953
-0.1380548 -0.0043961848 -0.027901864
-0.13729618 -0.0061540208 -0.030683532
-0.13781109 -0.0063867802 -0.030649895
-0.13269545 -0.015800117 -0.046233915
-0.13297616 -0.016290957 -0.046688896
-0.13347958 -0.016518522 -0.046656005
-0.13398302 -0.016746089 -0.046623118
-0.13437451 -0.017104844 -0.046833962
-0.13465379 -0.017594282 -0.047288064
-0.13515669 -0.017821614 -0.047255207
-0.13565961 -0.018048946 -0.04722235
-0.13605012 -0.018406885 -0.047432769
-0.13655286 -0.01863414 -0.047399931
-0.13716832 -0.018730944 -0.04712379
-0.13801041 -0.01856662 -0.046360012
-0.13851383 -0.018794188 -0.046327125
-0.13901725 -0.019021753 -0.046294235
-0.13940702 -0.019379726 -0.046505187
-0.13956925 -0.019997668 -0.04720287
-0.13995831 -0.020354815 -0.047413219
-0.14057474 -0.020452175 -0.047137178
-0.14119157 -0.020549603 -0.046860956
-0.14249668 -0.019866193 -0.045119639
-0.1430008 -0.020094072 -0.045086704
-0.1427003 -0.021231599 -0.046762392
-0.1432032 -0.021458933 -0.046729535
-0.054581769 0.023752248 -0.044837426
-0.055432703 0.024109453 -0.043815657
-0.055085175 0.022415752 -0.04624879
-0.055421483 0.021895105 -0.046706904
-0.055928387 0.021665966 -0.04667379
-0.056007203 0.020711005 -0.047865961
-0.056427617 0.020337475 -0.04807746
-0.05693347 0.02010881 -0.048044413
-0.057525292 0.020024773 -0.047766786
-0.058031324 0.019796029 -0.047733728
-0.058537353 0.019567283 -0.04770067
-0.059043385 0.019338539 -0.047667608
-0.059549417 0.019109795 -0.047634549
-0.060055442 0.018881053 -0.047601491
-0.060474463 0.018508153 -0.047813084
-0.06098032 0.018279487 -0.047780037
-0.061486177 0.018050823 -0.04774699
-0.061992031 0.017822158 -0.047713943
-0.062410235 0.017449753 -0.047925428
-0.062915921 0.017221166 -0.047892392
-0.0634216 0.016992578 -0.047859356
-0.063839167 0.016620588 -0.048070714
-0.064256452 0.016248856 -0.048281927
-0.064761788 0.016020427 -0.048248913
-0.076736435 0.034317903 -0.01658674
-0.077458091 0.03439147 -0.016018931
-0.079059176 0.035876863 -0.013037208
-0.080475397 0.037057269 -0.010573596
-0.081602454 0.037768148 -0.0089106178
-0.082434744 0.038004093 -0.008058968
-0.13846034 0.0090253642 -0.0091565866
-0.13851304 0.0081961863 -0.010202015
-0.13868472 0.007516088 -0.010975467
-0.13885605 0.0068374602 -0.011747246
-0.13867024 0.0057229623 -0.013320259
-0.13895978 0.0051937341 -0.01382014
-0.13924891 0.0046652663 -0.014319303
-0.13941881 0.0039928691 -0.015083887
-0.13852359 0.0020279356 -0.018228486
-0.13787039 0.00036399098 -0.02082279
-0.13815752 -0.00015596912 -0.021312181
-0.13844423 -0.00067519018 -0.021800878
-0.13873053 -0.0011936738 -0.022288878
-0.13866475 -0.0021341867 -0.023556797
-0.13906735 -0.0025098124 -0.023782682
-0.13806801 -0.0045629144 -0.027110212
-0.13719325 -0.0064593568 -0.030152222
-0.13770834 -0.0066921981 -0.030118572
-0.1322592 -0.016496755 -0.046451781
-0.13276263 -0.016724322 -0.04641889
-0.13315454 -0.017083082 -0.046629801
-0.13376947 -0.017179456 -0.046353117
-0.13393757 -0.017799869 -0.047051188
-0.13444048 -0.018027201 -0.047018338
-0.13494338 -0.018254533 -0.046985481
-0.13522208 -0.01874285 -0.047439165
-0.13561247 -0.019100305 -0.047649369
-0.13611487 -0.019327404 -0.047616545
-0.13672976 -0.019424379 -0.047340672
-0.13734508 -0.019521419 -0.04706461
-0.13830031 -0.019227553 -0.04605712
-0.13869032 -0.019585455 -0.046268158
-0.13896663 -0.020073192 -0.046722643
-0.13924257 -0.020560261 -0.047176514
-0.13974513 -0.020787437 -0.047143679
-0.1402477 -0.021014614 -0.047110848
-0.14097826 -0.020982523 -0.04659123
-0.14228286 -0.020300154 -0.044849265
-0.14278696 -0.020528032 -0.04481633
-0.14248699 -0.021664521 -0.046492666
-0.1429899 -0.021891851 -0.046459813
-0.055725809 0.023441181 -0.043509401
-0.05520647 0.021458743 -0.046435036
-0.05528653 0.020504141 -0.047627617
-0.055621888 0.019986069 -0.048083674
-0.056042146 0.019613046 -0.048294961
-0.056547649 0.019384539 -0.048261933
-0.057224762 0.019444687 -0.047740065
-0.057730619 0.01921602 -0.047707014
-0.058236472 0.018987356 -0.047673967
-0.058742329 0.01875869 -0.04764092
-0.059248183 0.018530026 -0.047607873
-0.05975404 0.018301358 -0.047574826
-0.060086202 0.017784985 -0.048030764
-0.060591709 0.017556477 -0.047997739
-0.061097212 0.01732797 -0.047964714
-0.061602723 0.017099462 -0.04793169
-0.06210823 0.016870955 -0.047898665
-0.062526107 0.016499134 -0.048109941
-0.063031442 0.016270705 -0.048076928
-0.063536771 0.016042277 -0.048043914
-0.064042106 0.015813848 -0.048010901
-0.064547442 0.015585418 -0.047977887
-0.065141276 0.015499908 -0.047700521
-0.077330925 0.034092821 -0.015468552
-0.079717599 0.03683975 -0.010322976
-0.080843002 0.037550151 -0.0086594513
-0.081574991 0.037626825 -0.0080800876
-0.13876575 0.0083290599 -0.0088374857
-0.1386987 0.0073540462 -0.010153022
-0.13898936 0.0068215416 -0.010657171
-0.13904117 0.0059976298 -0.011697802
-0.13885504 0.0048853434 -0.013270356
-0.13914435 0.0043569067 -0.013770094
-0.13943323 0.0038292292 -0.014269114
-0.13841933 0.0017202867 -0.017683614
-0.13823606 0.00062626781 -0.019230476
-0.13805355 -0.00046308149 -0.020770732
-0.13834046 -0.00098226883 -0.021259988
-0.13850965 -0.0016419651 -0.022009578
-0.13844426 -0.0025816835 -0.023277991
-0.13884693 -0.0029571508 -0.023503974
-0.1378486 -0.0050082016 -0.026832784
-0.13755296 -0.0062124971 -0.028597048
-0.13806897 -0.0064457478 -0.028563337
-0.13204567 -0.01693012 -0.046181779
-0.13254909 -0.017157687 -0.046148892
-0.13282971 -0.017647257 -0.04660362
-0.13322134 -0.018005457 -0.046814319
-0.13372424 -0.018232789 -0.046781469
-0.13411543 -0.018590664 -0.046992034
-0.13450634 -0.018948296 -0.04720246
-0.13489699 -0.019305682 -0.047412742
-0.13539939 -0.019532779 -0.047379922
-0.13590176 -0.019759879 -0.047347099
-0.13651659 -0.019857002 -0.047071133
-0.13701914 -0.020084178 -0.047038298
-0.13763456 -0.020181445 -0.046762135
-0.13825041 -0.02027878 -0.046485774
-0.13864005 -0.020635955 -0.046696447
-0.1390294 -0.020992886 -0.04690697
-0.13953197 -0.021220062 -0.046874143
-0.14003453 -0.021447239 -0.046841308
-0.14076495 -0.021415442 -0.046321504
-0.14206901 -0.020734116 -0.044578891
-0.14257313 -0.020961994 -0.044545956
-0.14227366 -0.022097439 -0.04622294
-0.14277658 -0.022324773 -0.046190087
-0.055509903 0.023003003 -0.043236405
-0.054906219 0.02087716 -0.046408728
-0.054901712 0.019779347 -0.047845501
-0.055237103 0.019262131 -0.048301093
-0.055742435 0.019033702 -0.048268083
-0.056333233 0.01894938 -0.047990814
-0.05692444 0.018865002 -0.047713354
-0.057430118 0.018636415 -0.047680322
-0.0579358 0.018407827 -0.047647286
-0.058441482 0.018179242 -0.04761425
-0.058947161 0.017950656 -0.047581214
-0.059366275 0.017578335 -0.047792666
-0.059871782 0.017349826 -0.047759645
-0.060203634 0.016834464 -0.04821514
-0.060795765 0.016749412 -0.047937956
-0.061301097 0.016520984 -0.047904938
-0.061631847 0.016006369 -0.04836018
-0.062136833 0.015778096 -0.048327189
-0.062729426 0.015692713 -0.048050132
-0.063234583 0.015464361 -0.048017133
-0.063739747 0.015236012 -0.047984131
-0.064244904 0.015007661 -0.047951128
-0.064838424 0.014921981 -0.047673848
-0.079550296 0.037573207 -0.0084431218
-0.080182411 0.037490968 -0.0081360415
-0.13883209 0.0073386594 -0.0090592485
-0.13876496 0.0063661356 -0.010373437
-0.13881709 0.0055428795 -0.011414477
-0.13875023 0.004576731 -0.012720178
-0.13892092 0.0039034637 -0.013487582
-0.13920996 0.0033761112 -0.013986805
-0.13937986 0.0027053419 -0.014751473
-0.1384851 0.00074662495 -0.017896371
-0.13853711 -6.0108458e-05 -0.018915923
-0.1382366 -0.0012895658 -0.020718714
-0.13840596 -0.0019491691 -0.021469144
-0.13822375 -0.0030291802 -0.022999184
-0.1383926 -0.0036848341 -0.023744801
-0.13797803 -0.0050363294 -0.025781777
-0.13837931 -0.0054094726 -0.026006
-0.13183212 -0.017363485 -0.045911778
-0.13222437 -0.017722029 -0.04612286
-0.13261633 -0.018080326 -0.046333801
-0.13300803 -0.018438375 -0.046544593
-0.13339944 -0.018796181 -0.046755247
-0.1337906 -0.019153742 -0.046965752
-0.1341815 -0.019511057 -0.047176111
-0.13457213 -0.019868128 -0.047386333
-0.13518628 -0.019965254 -0.047110472
-0.13568868 -0.020192355 -0.047077652
-0.13619107 -0.020419452 -0.047044829
-0.13635632 -0.021035267 -0.047740761
-0.13719584 -0.020873649 -0.046979193
-0.13781111 -0.020971155 -0.046703096
-0.13831368 -0.021198332 -0.046670265
-0.13881624 -0.021425508 -0.046637431
-0.13931881 -0.021652685 -0.0466046
-0.13982137 -0.021879861 -0.046571769
-0.14043774 -0.021977745 -0.046295442
-0.14174058 -0.021298004 -0.044553366
-0.14224452 -0.021525804 -0.044520441
-0.14194594 -0.022659509 -0.046196911
-0.14244866 -0.022886762 -0.046164069
-0.055293996 0.022564823 -0.0429634
-0.054606177 0.020295981 -0.046382438
-0.054517422 0.019055551 -0.048063081
-0.054852843 0.018539192 -0.048518211
-0.055528089 0.018598694 -0.047997054
-0.056033421 0.018370265 -0.047964044
-0.056709941 0.018429693 -0.047442142
-0.057215627 0.018201107 -0.047409106
-0.057635333 0.017828699 -0.047620621
-0.058140844 0.017600194 -0.047587596
-0.058646347 0.017371684 -0.047554575
-0.058979042 0.016856305 -0.048010211
-0.059484202 0.016627954 -0.047977213
-0.059989359 0.016399605 -0.04794421
-0.06049452 0.016171254 -0.047911208
-0.06099968 0.015942905 -0.047878206
-0.06141765 0.01557166 -0.04808934
-0.06192264 0.015343388 -0.048056349
-0.062427621 0.015115116 -0.048023362
-0.063020311 0.015029503 -0.0477462
-0.063525476 0.014801153 -0.047713198
-0.064030632 0.014572803 -0.047680199
-0.064712435 0.014629592 -0.047158282
-0.13854057 0.0059107295 -0.010089702
-0.13859303 0.0050881295 -0.011131151
-0.13852654 0.0041227983 -0.01243736
-0.13893498 0.0037395242 -0.01267049
-0.13898669 0.0029229934 -0.013704496
-0.13915682 0.0022527112 -0.014469467
-0.13932659 0.0015838696 -0.015232794
-0.13878658 5.9268674e-05 -0.017581372
-0.13860266 -0.0010304209 -0.019127348
-0.13853692 -0.0019742337 -0.020404946
-0.13823715 -0.003195886 -0.02219956
-0.13817231 -0.0041318554 -0.023466291
-0.13869162 -0.004366593 -0.023432365
-0.13150765 -0.017927757 -0.045885827
-0.13189986 -0.018285984 -0.046096846
-0.13240294 -0.018513393 -0.046063986
-0.13279471 -0.018871296 -0.046274871
-0.13318621 -0.019228952 -0.046485614
-0.13335466 -0.019846413 -0.047182593
-0.13385689 -0.020073432 -0.047149785
-0.13413595 -0.020559836 -0.047602739
-0.13486132 -0.020527475 -0.047084168
-0.13525157 -0.020884074 -0.047294345
-0.13564157 -0.021240432 -0.04750438
-0.13591921 -0.021725705 -0.04795678
-0.13653299 -0.021823334 -0.047681492
-0.13748513 -0.021533225 -0.046676923
-0.1381005 -0.021630954 -0.046400726
-0.13848992 -0.021987421 -0.046611279
-0.13899231 -0.022214519 -0.046578459
-0.1394947 -0.02244162 -0.04654564
-0.14011075 -0.022539662 -0.046269398
-0.14152682 -0.021731816 -0.044283085
-0.14203076 -0.021959618 -0.04425016
-0.14161845 -0.023221191 -0.046170902
-0.142121 -0.023448369 -0.046138071
-0.055249512 0.022419369 -0.042194311
-0.054391317 0.019859921 -0.046110757
-0.054303076 0.018620545 -0.047792058
-0.054553855 0.017960815 -0.048491288
-0.055143636 0.017876212 -0.048214383
-0.055819076 0.017935257 -0.047693018
-0.056409899 0.017850557 -0.047415551
-0.05691541 0.01762205 -0.047382526
-0.057335075 0.017249972 -0.047593977
-0.057754453 0.016878147 -0.047805283
-0.058259614 0.016649798 -0.047772281
-0.058678526 0.01627831 -0.047983453
-0.059097156 0.015907077 -0.048194475
-0.059601966 0.015678884 -0.048161499
-0.060280249 0.015736395 -0.047640275
-0.060524769 0.015079871 -0.048339423
-0.061203454 0.015136952 -0.047818501
-0.061708439 0.014908679 -0.047785509
-0.062213425 0.014680408 -0.047752522
-0.06280604 0.014594644 -0.047475267
-0.063223392 0.014223864 -0.04768654
-0.063552596 0.013711183 -0.048141617
-0.063969254 0.01334109 -0.048352443
-0.13891245 0.0061866292 -0.0084561314
-0.13836896 0.0046333801 -0.010847824
-0.13842158 0.0038138011 -0.011886684
-0.13871139 0.0032857549 -0.012387776
-0.13876343 0.0024698756 -0.013422186
-0.13893379 0.0018000809 -0.014187462
-0.1394596 0.001562398 -0.014153112
-0.13880049 -0.00010642165 -0.016772168
-0.13873419 -0.0010545743 -0.018057607
-0.13866812 -0.0019993519 -0.01933847
-0.13825056 -0.0033628286 -0.021398803
-0.13841961 -0.0040190574 -0.022147182
-0.13929173 -0.0038334699 -0.021330785
-0.13178997 -0.016952731 -0.043445528
-0.13129419 -0.018360974 -0.045615919
-0.13168646 -0.018719051 -0.045827031
-0.13218954 -0.018946463 -0.045794167
-0.13258138 -0.019304216 -0.046005145
-0.13275053 -0.019921809 -0.046702862
-0.13314165 -0.020278741 -0.04691324
-0.13353248 -0.020635426 -0.047123473
-0.13392307 -0.020991867 -0.047333568
-0.13453658 -0.021089312 -0.047057882
-0.13492683 -0.021445598 -0.047267996
-0.13542868 -0.021672465 -0.047235206
-0.13581848 -0.022028429 -0.047445189
-0.13632019 -0.022255216 -0.047412414
-0.13727203 -0.021965697 -0.046407476
-0.13743618 -0.022579925 -0.047104057
-0.13793807 -0.022806792 -0.047071271
-0.13843994 -0.023033656 -0.047038488
-0.1392816 -0.022874095 -0.046276193
-0.13978399 -0.023101192 -0.04624337
-0.14119866 -0.022295168 -0.044257667
-0.14170244 -0.022522891 -0.044224758
-0.14140527 -0.023653815 -0.045901358
-0.14190784 -0.02388099 -0.045868531
-0.054091554 0.019279292 -0.046084579
-0.053919464 0.017898047 -0.048009526
-0.054170467 0.017239515 -0.048708051
-0.054759707 0.017154722 -0.048431411
-0.055519547 0.017356692 -0.047666356
-0.056110065 0.01727182 -0.047388978
-0.056529865 0.01689999 -0.047600355
-0.057035021 0.016671641 -0.047567353
-0.057454363 0.016300144 -0.047778592
-0.057959348 0.016071873 -0.0477456
-0.05846433 0.015843602 -0.047712613
-0.05888303 0.015472518 -0.047923733
-0.059301443 0.015101692 -0.048134703
-0.059806082 0.014873576 -0.048101738
-0.060310718 0.014645462 -0.048068773
-0.060989253 0.014702243 -0.047547661
-0.061407089 0.014331552 -0.04775884
-0.061999224 0.014245699 -0.047481682
-0.06250421 0.014017427 -0.047448691
-0.062921517 0.013646973 -0.0476599
-0.063250817 0.013134866 -0.048114836
-0.063316688 0.01219914 -0.049298801
-0.06382028 0.011971497 -0.049265902
-0.13874 0.0049065771 -0.0092179794
-0.13819782 0.0033597054 -0.011603765
-0.13860653 0.0029765675 -0.011837278
-0.13865872 0.002160839 -0.012872852
-0.13882928 0.0014911367 -0.013638992
-0.13923657 0.0011097676 -0.013871106
-0.13881439 -0.0002723489 -0.015961803
-0.13874803 -0.0012208821 -0.017249607
-0.13879962 -0.0020245237 -0.018269718
-0.13873351 -0.0029669041 -0.019549293
-0.13878496 -0.003765496 -0.020562876
-0.13113137 -0.017912375 -0.044156067
-0.13108072 -0.018794192 -0.045346007
-0.13147308 -0.01915212 -0.045557212
-0.13186517 -0.019509804 -0.045768276
-0.13203503 -0.020127187 -0.046466231
-0.13231544 -0.020613719 -0.046919808
-0.13281749 -0.02084066 -0.046887014
-0.13320832 -0.02119703 -0.047097184
-0.13371019 -0.021423897 -0.047064397
-0.13432363 -0.02152149 -0.046788618
-0.13482566 -0.021748435 -0.046755817
-0.13532771 -0.021975378 -0.046723019
-0.13560568 -0.022460312 -0.047176108
-0.13633181 -0.022429263 -0.046657424
-0.13649681 -0.023042595 -0.047353275
-0.13699834 -0.023269307 -0.047320511
-0.13749988 -0.023496017 -0.047287747
-0.1381142 -0.023594251 -0.047012229
-0.13872893 -0.023692554 -0.046736527
-0.13968442 -0.023404907 -0.045730315
-0.14087076 -0.022858134 -0.044232268
-0.14137436 -0.023085777 -0.04419937
-0.14107807 -0.024214964 -0.04587546
-0.14158046 -0.024442062 -0.04584264
-0.053792 0.018699063 -0.04605842
-0.053620797 0.017319892 -0.047982775
-0.053872015 0.016662184 -0.048681088
-0.054460954 0.016577221 -0.048404533
-0.055050291 0.016492199 -0.048127793
-0.055810433 0.016693482 -0.047362424
-0.056230195 0.016321979 -0.047573734
-0.056735177 0.016093709 -0.047540747
-0.057240162 0.015865436 -0.047507755
-0.057745147 0.015637165 -0.047474761
-0.058250133 0.015408892 -0.047441773
-0.058496665 0.014752931 -0.048140883
-0.059087396 0.014667281 -0.047864053
-0.059592035 0.014439167 -0.047831085
-0.06009667 0.014211052 -0.047798116
-0.060688153 0.014125187 -0.04752107
-0.061105944 0.013754822 -0.047732182
-0.061610579 0.013526709 -0.047699217
-0.062115218 0.013298593 -0.047666248
-0.062532373 0.012928642 -0.047877237
-0.062949248 0.012558945 -0.048088081
-0.062928207 0.011483528 -0.049514491
-0.063431457 0.01125604 -0.049481612
-0.13856804 0.0036302139 -0.0099776313
-0.13850158 0.0026671577 -0.011286386
-0.13867261 0.0019957065 -0.012055612
-0.13860616 0.0010383439 -0.013356886
-0.13901353 0.00065713702 -0.013589101
-0.139302 0.00013305519 -0.014087357
-0.13864392 -0.0015294709 -0.016704777
-0.13881351 -0.0021914046 -0.017462445
-0.13910057 -0.0027106556 -0.017955279
-0.13080667 -0.018477231 -0.044130683
-0.13086726 -0.019227408 -0.045076098
-0.13114893 -0.019715391 -0.045531407
-0.13131955 -0.020332562 -0.046229608
-0.13160045 -0.020818952 -0.046683345
-0.13188095 -0.021304678 -0.047136459
-0.13238266 -0.021531466 -0.047103684
-0.13288435 -0.021758255 -0.047070913
-0.13349731 -0.021855928 -0.046795227
-0.13411067 -0.021953668 -0.04651935
-0.13461271 -0.022180613 -0.046486553
-0.13511476 -0.022407556 -0.046453759
-0.13561682 -0.022634499 -0.046420958
-0.13611886 -0.022861443 -0.04638816
-0.13617195 -0.023602804 -0.04732693
-0.13667332 -0.023829438 -0.047294177
-0.13706228 -0.0241843 -0.047503926
-0.13778868 -0.024154462 -0.046985995
-0.13851605 -0.024124587 -0.046467353
-0.13958476 -0.02370883 -0.045216911
-0.14054306 -0.023420712 -0.044206891
-0.14104648 -0.023648279 -0.044174001
-0.14086497 -0.024647441 -0.045606013
-0.14136736 -0.024874538 -0.045573194
-0.053577282 0.018263305 -0.045786925
-0.053153824 0.01645603 -0.048443567
-0.053658117 0.016228072 -0.048410621
-0.054077893 0.015857367 -0.048621207
-0.054666694 0.015772156 -0.048344731
-0.055425916 0.015972558 -0.047580112
-0.05593073 0.015744366 -0.047547136
-0.05652098 0.015658999 -0.047269907
-0.0567693 0.015002779 -0.047969192
-0.05727376 0.014774743 -0.047936238
-0.057778224 0.014546707 -0.047903281
-0.058282688 0.014318671 -0.047870327
-0.058959596 0.014375207 -0.047349259
-0.059464406 0.014147014 -0.047316279
-0.059969217 0.013918822 -0.047283303
-0.060474031 0.013690628 -0.047250323
-0.060805008 0.013178491 -0.047705542
-0.061309472 0.012950454 -0.047672588
-0.061813936 0.012722418 -0.047639634
-0.0623184 0.012494382 -0.047606673
-0.062735341 0.012124833 -0.04781761
-0.062714741 0.011050311 -0.049244583
-0.06321799 0.010822822 -0.049211703
-0.13905898 0.0040472937 -0.0080753276
-0.13839656 0.0023575251 -0.010735097
-0.13856776 0.0016861664 -0.011505194
-0.13873859 0.001016254 -0.012273632
-0.13879052 0.00020450653 -0.013307096
-0.13919768 -0.00017626488 -0.013539244
-0.13877577 -0.001554211 -0.015630145
-0.1389454 -0.0022168271 -0.016389776
-0.13037159 -0.01917227 -0.044350073
-0.13043272 -0.019920979 -0.045294534
-0.13060406 -0.020537937 -0.045992978
-0.13088545 -0.02102419 -0.046446882
-0.13127694 -0.021380497 -0.046657205
-0.13177881 -0.021607364 -0.046624415
-0.13216984 -0.02196335 -0.046834607
-0.13267155 -0.022190139 -0.046801832
-0.13317324 -0.022416925 -0.046769053
-0.13367496 -0.022643713 -0.046736278
-0.13417667 -0.022870503 -0.046703503
-0.13467836 -0.02309729 -0.046670727
-0.13518007 -0.023324078 -0.046637952
-0.13556981 -0.023679355 -0.046848066
-0.13607135 -0.023906067 -0.046815298
-0.13646066 -0.024261024 -0.047025286
-0.1368497 -0.02461574 -0.047235124
-0.13757594 -0.024586199 -0.046717007
-0.13830318 -0.024556616 -0.046198186
-0.13948505 -0.024012962 -0.044703156
-0.14021559 -0.023982905 -0.044181526
-0.14071885 -0.024210393 -0.044148646
-0.14053805 -0.025208058 -0.045580223
-0.14104028 -0.025435077 -0.045547415
-0.053362567 0.017827544 -0.045515429
-0.052939922 0.016021919 -0.0481731
-0.053359948 0.015651286 -0.048383765
-0.053779684 0.015280907 -0.048594292
-0.054368179 0.015195527 -0.048317902
-0.055041928 0.015252627 -0.047797501
-0.055546392 0.015024591 -0.047764547
-0.056136105 0.014939035 -0.047487583
-0.056469955 0.014426216 -0.047942486
-0.057059783 0.014340484 -0.047665678
-0.057564247 0.014112446 -0.04763272
-0.058068711 0.013884411 -0.047599766
-0.058745474 0.013940648 -0.047078513
-0.059250284 0.013712455 -0.047045536
-0.059755094 0.013484263 -0.047012556
-0.060173206 0.013114119 -0.047223844
-0.060417589 0.012460975 -0.047922701
-0.061008569 0.012374596 -0.047645982
-0.061512858 0.012146638 -0.047613036
-0.06201715 0.01191868 -0.047580089
-0.062434055 0.011549458 -0.047790967
-0.062763236 0.011039494 -0.048245188
-0.063267007 0.010811771 -0.048212275
-0.13864818 0.0024815048 -0.0093762521
-0.13846283 0.0013764038 -0.01095438
-0.13875252 0.00085029891 -0.011455962
-0.13856748 -0.00024812398 -0.013025089
-0.13897473 -0.00062873319 -0.013257341
-0.13950035 -0.00086633081 -0.013223003
-0.14002596 -0.0011039283 -0.013188665
-0.13015798 -0.019605784 -0.044079974
-0.12999877 -0.020613598 -0.045512673
-0.13028067 -0.021099962 -0.045967057
-0.13034177 -0.021843987 -0.046906725
-0.1308433 -0.022070698 -0.046873957
-0.13145533 -0.022168446 -0.046598304
-0.13195704 -0.022395233 -0.046565529
-0.13245875 -0.022622021 -0.046532754
-0.13296045 -0.022848809 -0.046499979
-0.13346216 -0.023075597 -0.0464672
-0.1337412 -0.023559447 -0.046920154
-0.13424255 -0.023786081 -0.046887401
-0.13485554 -0.023884382 -0.046611842
-0.13535708 -0.024111092 -0.046579078
-0.13574664 -0.02446598 -0.046789143
-0.13613592 -0.024820626 -0.046999063
-0.13663712 -0.025047179 -0.046966322
-0.13713831 -0.025273737 -0.046933576
-0.13820319 -0.024860518 -0.045685641
-0.13915828 -0.024574373 -0.044677645
-0.13977465 -0.024673214 -0.044400573
-0.14005004 -0.025157129 -0.044856034
-0.14021137 -0.025768291 -0.045554452
-0.14082725 -0.025867404 -0.045278057
-0.053316996 0.017679622 -0.044752348
-0.052726015 0.015587809 -0.047902629
-0.052893888 0.014790331 -0.048843514
-0.053397484 0.014562686 -0.048810616
-0.054069869 0.014619294 -0.048291087
-0.054658465 0.014533686 -0.048014596
-0.055162586 0.014305807 -0.047981657
-0.055666704 0.014077928 -0.047948726
-0.056256048 0.013992105 -0.047672015
-0.056760341 0.013764147 -0.047639072
-0.057264633 0.013536189 -0.047606129
-0.057854738 0.01345015 -0.047329206
-0.058531344 0.013506089 -0.04680777
-0.059036158 0.013277896 -0.04677479
-0.059540968 0.013049704 -0.04674181
-0.059613254 0.012113482 -0.047928948
-0.060117196 0.01188568 -0.047896024
-0.060621139 0.01165788 -0.047863103
-0.061211992 0.011571255 -0.047586456
-0.061803244 0.01148457 -0.047309622
-0.062220227 0.011115496 -0.047520593
-0.062636919 0.010746676 -0.047731414
-0.063228458 0.010659737 -0.047454722
-0.13866211 0.0023160081 -0.0085535441
-0.1384766 0.0012104691 -0.010134583
-0.13876648 0.00068410503 -0.010637115
-0.13846283 -0.00055780262 -0.012476204
-0.13887025 -0.0009384373 -0.012708735
-0.1392774 -0.0013187991 -0.012941098
-0.13992186 -0.0014138027 -0.012640034
-0.12983395 -0.02016948 -0.044054646
-0.12967548 -0.021175789 -0.045486905
-0.12984742 -0.021790827 -0.046184432
-0.13012902 -0.022275722 -0.046637736
-0.13063057 -0.022502434 -0.046604972
-0.13124254 -0.022600329 -0.046329223
-0.13174424 -0.022827117 -0.046296448
-0.13224594 -0.023053903 -0.046263672
-0.13274765 -0.023280693 -0.046230897
-0.13324934 -0.023507481 -0.046198118
-0.13352853 -0.023991035 -0.046651259
-0.13391858 -0.024345843 -0.046861224
-0.13441977 -0.024572399 -0.046828482
-0.13503262 -0.024670934 -0.046553001
-0.13542216 -0.025025511 -0.046762999
-0.13592334 -0.025252067 -0.046730258
-0.13642453 -0.02547862 -0.046697512
-0.13692573 -0.025705177 -0.046664771
-0.13799024 -0.025292696 -0.045416377
-0.13849229 -0.025519639 -0.04538358
-0.13933429 -0.025362577 -0.044619326
-0.13926977 -0.026228936 -0.045804814
-0.13965812 -0.026583221 -0.04601521
-0.1402732 -0.026682515 -0.045739263
-0.054123927 0.020079775 -0.040057242
-0.053102132 0.017243562 -0.04448067
-0.052764297 0.015581654 -0.046899788
-0.05259639 0.01421483 -0.048816551
-0.053099811 0.013987264 -0.04878366
-0.053603236 0.013759697 -0.048750773
-0.054275535 0.013815733 -0.048231389
-0.054948758 0.013871845 -0.047711283
-0.055452872 0.013643966 -0.047678351
-0.05604215 0.013557994 -0.047401551
-0.056546438 0.013330036 -0.047368608
-0.057050727 0.013102079 -0.047335662
-0.057640757 0.013015891 -0.047058646
-0.058231194 0.012929644 -0.046781439
-0.058735829 0.012701529 -0.046748474
-0.058895554 0.011907469 -0.047691587
-0.059399497 0.01167967 -0.047658663
-0.059817012 0.011310781 -0.047869366
-0.060407382 0.011224067 -0.047592819
-0.060911328 0.010996266 -0.047559898
-0.061502278 0.010909413 -0.04728315
-0.062006399 0.010681534 -0.047250219
-0.062423162 0.010312863 -0.047461133
-0.063014627 0.010225776 -0.047184348
-0.13860932 0.0011884935 -0.0090443362
-0.13878046 0.00051767204 -0.009817089
-0.13871373 -0.00043841163 -0.011124252
-0.13876571 -0.0012483635 -0.012159735
-0.1392917 -0.0014861315 -0.012125372
-0.12928985 -0.020992406 -0.044518214
-0.12913267 -0.021995993 -0.045948051
-0.12930499 -0.02260956 -0.04664439
-0.12969649 -0.022964841 -0.046854358
-0.1303077 -0.023062827 -0.046578884
-0.13091937 -0.023160879 -0.046303224
-0.1314209 -0.023387589 -0.04627046
-0.13203314 -0.023485789 -0.045994595
-0.13242397 -0.02384101 -0.046204928
-0.13281451 -0.024195991 -0.04641512
-0.1332048 -0.024550728 -0.046625163
-0.13348374 -0.025033075 -0.047077548
-0.13409585 -0.025131702 -0.046802338
-0.13459687 -0.02535818 -0.046769608
-0.13520956 -0.025456952 -0.046494197
-0.13571076 -0.025683505 -0.046461456
-0.13621195 -0.025910061 -0.04642871
-0.13671312 -0.026136618 -0.046395969
-0.1372143 -0.026363172 -0.046363227
-0.13827933 -0.025951818 -0.04511432
-0.13878138 -0.026178762 -0.045081519
-0.13883084 -0.026915586 -0.04602208
-0.13933221 -0.027142219 -0.045989327
-0.13983355 -0.027368853 -0.045956571
-0.053907719 0.019640986 -0.039783861
-0.053056348 0.017095134 -0.043716345
-0.052634276 0.015289795 -0.046384487
-0.052550539 0.014065238 -0.048059933
-0.052886277 0.013553898 -0.048513662
-0.053389702 0.013326331 -0.048480771
-0.053893127 0.013098764 -0.048447885
-0.054565623 0.013154346 -0.047928289
-0.055069394 0.012926623 -0.047895379
-0.055658136 0.012840465 -0.04761884
-0.056162074 0.012612663 -0.047585919
-0.056751393 0.012526366 -0.047309179
-0.057255514 0.012298487 -0.047276244
-0.057759628 0.012070608 -0.047243312
-0.058177851 0.011701459 -0.047454227
-0.058509842 0.011191566 -0.047908526
-0.059099559 0.011104841 -0.047632091
-0.059603333 0.010877118 -0.047599178
-0.060107101 0.010649395 -0.047566269
-0.06069757 0.010562453 -0.047289621
-0.061201517 0.010334653 -0.047256693
-0.061618418 0.0099662263 -0.047467537
-0.062122185 0.009738503 -0.047434624
-0.062713347 0.0096512493 -0.047157928
-0.063392602 0.0097045172 -0.046636913
-0.13891351 0.00049494795 -0.0087265
-0.13908432 -0.00017512486 -0.0094995955
-0.1388983 -0.0012729163 -0.011075191
-0.13954379 -0.0013680741 -0.010772916
-0.12857364 -0.021197991 -0.044281345
-0.12841792 -0.022201158 -0.045711666
-0.12881011 -0.022556942 -0.045922168
-0.12887315 -0.023298211 -0.046860937
-0.12937418 -0.02352469 -0.046828207
-0.1298752 -0.023751169 -0.046795476
-0.13059641 -0.023721047 -0.046277236
-0.13109778 -0.02394768 -0.046244483
-0.13170969 -0.024046035 -0.045968704
-0.13210049 -0.024400946 -0.046178978
-0.13238028 -0.024883561 -0.04663182
-0.13265969 -0.025365515 -0.047084045
-0.13316035 -0.025591839 -0.047051333
-0.13377213 -0.025690623 -0.046776209
-0.13438435 -0.025789473 -0.046500895
-0.13488536 -0.02601595 -0.046468161
-0.13549817 -0.026114946 -0.04619265
-0.1358874 -0.026468908 -0.046402704
-0.13638841 -0.026695386 -0.046369974
-0.13688943 -0.026921863 -0.046337243
-0.13784076 -0.026639128 -0.045332208
-0.13834247 -0.026865914 -0.045299429
-0.13861819 -0.027347175 -0.045753181
-0.13911954 -0.027573809 -0.045720428
-0.1396209 -0.027800443 -0.045687675
-0.054982282 0.022511154 -0.034269746
-0.054033142 0.019784797 -0.038511802
-0.053010497 0.016946498 -0.042950969
-0.052420083 0.014855086 -0.046113648
-0.052336857 0.013631575 -0.047789741
-0.05267274 0.013120532 -0.048243657
-0.053092137 0.01275153 -0.048453942
-0.053679593 0.012665398 -0.048177879
-0.054183014 0.012437833 -0.048144992
-0.054771047 0.012351564 -0.047868729
-0.055444378 0.012406652 -0.047348559
-0.055948321 0.012178851 -0.047315635
-0.056452263 0.01195105 -0.047282714
-0.056956206 0.011723248 -0.04724979
-0.057374567 0.011354346 -0.047460638
-0.057792634 0.010985697 -0.047671333
-0.058210414 0.0106173 -0.047881886
-0.058799833 0.010530407 -0.047605533
-0.059389647 0.010443455 -0.04732899
-0.059893418 0.010215731 -0.047296081
-0.060397189 0.009988009 -0.047263168
-0.06090096 0.0097602867 -0.047230259
-0.061404731 0.0095325634 -0.047197346
-0.061908502 0.0093048401 -0.047164436
-0.062412273 0.0090771178 -0.047131527
-0.063003533 0.0089896359 -0.046854723
-0.063507482 0.0087618353 -0.046821803
-0.064011425 0.0085340338 -0.046788882
-0.064515367 0.0083062323 -0.046755958
-0.13868944 4.0198083e-05 -0.008443173
-0.13886049 -0.0006293839 -0.0092165759
-0.1391501 -0.0011544249 -0.0097197676
-0.12770316 -0.022406325 -0.045475282
-0.12787695 -0.02301947 -0.046172109
-0.12826894 -0.02337461 -0.046382241
-0.12855124 -0.023857759 -0.046834789
-0.12916167 -0.023955984 -0.046559494
-0.12966268 -0.024182463 -0.046526764
-0.1301637 -0.024408942 -0.046494029
-0.13066472 -0.024635417 -0.046461299
-0.13105546 -0.024989763 -0.046671189
-0.13155632 -0.025216166 -0.04663847
-0.13194664 -0.02557019 -0.046848226
-0.13244732 -0.025796514 -0.046815518
-0.13294798 -0.026022838 -0.046782807
-0.1335597 -0.026121769 -0.04650759
-0.13406055 -0.02634817 -0.04647487
-0.1345614 -0.026574569 -0.046442151
-0.13506225 -0.02680097 -0.046409432
-0.13556308 -0.027027372 -0.046376709
-0.13606393 -0.027253773 -0.04634399
-0.13656478 -0.027480174 -0.04631127
-0.13751534 -0.027198298 -0.045306545
-0.13801688 -0.027425008 -0.045273781
-0.13840552 -0.027778763 -0.045484286
-0.13890688 -0.028005395 -0.045451533
-0.13940823 -0.028232029 -0.04541878
-0.054073259 0.019782955 -0.037486915
-0.052879937 0.016653696 -0.042431805
-0.052205883 0.014420378 -0.045842811
-0.052123174 0.013197911 -0.047519553
-0.052375421 0.012545801 -0.048216909
-0.052710935 0.012036029 -0.048670061
-0.053213842 0.011808697 -0.048637208
-0.053885177 0.011863336 -0.048118275
-0.05438843 0.011635847 -0.048085399
-0.055061035 0.011690406 -0.047565736
-0.055649571 0.011603851 -0.047289182
-0.056153338 0.011376129 -0.047256269
-0.056657113 0.011148405 -0.047223359
-0.056990027 0.010639068 -0.047677658
-0.057493456 0.010411501 -0.047644772
-0.05799688 0.010183935 -0.047611881
-0.058500305 0.0099563682 -0.047578994
-0.059003729 0.0097288014 -0.047546104
-0.059593413 0.0096416036 -0.047269639
-0.060097016 0.0094139585 -0.047236741
-0.060600612 0.0091863144 -0.047203839
-0.061104208 0.0089586694 -0.047170941
-0.061607808 0.0087310243 -0.047138039
-0.06202428 0.0083634024 -0.047348779
-0.062615 0.0082757361 -0.047072243
-0.063206129 0.0081880083 -0.046795517
-0.063709907 0.007960286 -0.046762604
-0.06368731 0.0068954336 -0.048190277
-0.064190045 0.0066681788 -0.048157431
-0.13834648 -0.00055817288 -0.008429436
-0.13863666 -0.0010836429 -0.0089335553
-0.13916437 -0.0013221808 -0.0088990824
-0.12753463 -0.021965887 -0.044019192
-0.12727198 -0.023095824 -0.04569285
-0.12744609 -0.023707842 -0.046388976
-0.12772886 -0.024190601 -0.046841364
-0.12822954 -0.024416925 -0.04680866
-0.12883964 -0.024515307 -0.046533447
-0.12934048 -0.024741707 -0.046500728
-0.12973157 -0.025095895 -0.046710528
-0.13023224 -0.025322217 -0.04667782
-0.13051291 -0.025803547 -0.047129706
-0.13101324 -0.026029715 -0.04709702
-0.13151358 -0.026255883 -0.047064334
-0.13223495 -0.026227511 -0.046546988
-0.13273561 -0.026453836 -0.04651428
-0.1332363 -0.02668016 -0.046481572
-0.13373697 -0.026906485 -0.04644886
-0.13412641 -0.027259812 -0.046658613
-0.13462691 -0.02748606 -0.046625912
-0.13523901 -0.027585454 -0.046350736
-0.13573967 -0.027811777 -0.046318028
-0.13635235 -0.02791132 -0.046042651
-0.13719013 -0.027757084 -0.0452809
-0.1376915 -0.027983718 -0.045248147
-0.13819286 -0.028210349 -0.045215394
-0.13869421 -0.028436983 -0.045182642
-0.054027751 0.019635003 -0.036711056
-0.053003367 0.01679272 -0.041169144
-0.051991682 0.013985669 -0.045571972
-0.051909491 0.012764248 -0.047249366
-0.052161958 0.012112584 -0.047946997
-0.052330252 0.011321508 -0.048885882
-0.052832816 0.011094333 -0.048853055
-0.053419378 0.011007751 -0.048577506
-0.054090627 0.011061823 -0.048058715
-0.05467822 0.010975141 -0.047782611
-0.05526622 0.010888402 -0.047506321
-0.055769641 0.010660836 -0.047473434
-0.056273069 0.010433269 -0.047440544
-0.056691226 0.010065189 -0.047651105
-0.057194483 0.0098377001 -0.047618229
-0.057697736 0.0096102115 -0.04758535
-0.058200985 0.0093827229 -0.047552474
-0.058704238 0.0091552343 -0.047519594
-0.059207488 0.0089277457 -0.047486722
-0.059797041 0.0088403039 -0.047210328
-0.060300469 0.0086127371 -0.047177438
-0.060803894 0.0083851703 -0.047144551
-0.061307319 0.0081576034 -0.04711166
-0.061810747 0.0079300366 -0.047078773
-0.062314168 0.0077024708 -0.047045887
-0.062817596 0.0074749039 -0.047012996
-0.06323351 0.0071078385 -0.047223706
-0.063474074 0.0064626615 -0.047920644
-0.063976809 0.0062354072 -0.047887798
-0.13812248 -0.0010127591 -0.0081462115
-0.13853166 -0.0013947369 -0.0083812214
-0.12699366 -0.022785841 -0.044482164
-0.12684138 -0.023784379 -0.045910116
-0.12690705 -0.024523214 -0.046847939
-0.12708119 -0.025132524 -0.047541462
-0.12758118 -0.025358537 -0.047508799
-0.12829936 -0.025329575 -0.046992108
-0.12879968 -0.025555745 -0.046959419
-0.12930001 -0.025781913 -0.046926733
-0.12969072 -0.026135383 -0.047136176
-0.13008113 -0.026488613 -0.047345478
-0.13069104 -0.026587568 -0.047070827
-0.13119121 -0.02681366 -0.047038149
-0.13169137 -0.027039751 -0.047005478
-0.13219152 -0.027265845 -0.0469728
-0.1326917 -0.027491936 -0.046940126
-0.13319185 -0.027718026 -0.046907451
-0.13369201 -0.02794412 -0.046874776
-0.13419218 -0.028170211 -0.046842102
-0.1348037 -0.028269773 -0.046567183
-0.1355273 -0.028242776 -0.046049498
-0.1361399 -0.028342465 -0.045774031
-0.13675292 -0.028442221 -0.045498375
-0.13736635 -0.028542046 -0.045222532
-0.13798019 -0.028641939 -0.044946499
-0.13848156 -0.028868573 -0.044913746
-0.052957375 0.016643517 -0.04040014
-0.052197397 0.014262932 -0.044073958
-0.051779445 0.012472021 -0.046735249
-0.051948495 0.011679367 -0.047677085
-0.052200664 0.011029489 -0.048373561
-0.052619644 0.010661709 -0.048583511
-0.053206131 0.01057498 -0.048307873
-0.053708866 0.010347726 -0.048275031
-0.054380313 0.010401344 -0.047756031
-0.054883391 0.010173934 -0.047723163
-0.055386476 0.0099465232 -0.047690298
-0.055889554 0.009719112 -0.047657434
-0.056392632 0.0094917025 -0.047624569
-0.056810465 0.0091241971 -0.047834918
-0.057313375 0.008896865 -0.047802068
-0.057816282 0.0086695328 -0.047769211
-0.058319189 0.0084422007 -0.047736358
-0.058822095 0.0082148677 -0.047703501
-0.059325002 0.0079875356 -0.047670648
-0.059827909 0.007760203 -0.047637794
-0.060417272 0.0076724198 -0.047361642
-0.061007034 0.0075845756 -0.0470853
-0.061510287 0.007357087 -0.047052424
-0.061839536 0.0068508736 -0.047506377
-0.062342446 0.006623541 -0.047473524
-0.062845349 0.0063962084 -0.047440667
-0.063260823 0.0060298904 -0.047651011
-0.063763559 0.005802636 -0.047618169
-0.063915797 0.0050210129 -0.04855654
-0.12645379 -0.02360411 -0.044944178
-0.12630278 -0.024599951 -0.046369728
-0.1263691 -0.025336919 -0.047305964
-0.12676053 -0.025690302 -0.047515132
-0.12726036 -0.025916239 -0.047482483
-0.12786908 -0.026014965 -0.047207974
-0.12847824 -0.026113756 -0.046933275
-0.12886907 -0.026466995 -0.047142643
-0.12925965 -0.026819991 -0.047351871
-0.12975946 -0.02704593 -0.047319219
-0.13025929 -0.027271865 -0.047286563
-0.13086905 -0.027371055 -0.047011986
-0.13136904 -0.027597068 -0.046979323
-0.13186903 -0.027823083 -0.04694666
-0.13236901 -0.028049098 -0.046913993
-0.13286902 -0.028275114 -0.046881333
-0.133369 -0.028501129 -0.046848666
-0.13398002 -0.028600769 -0.046573848
-0.13448019 -0.028826861 -0.046541173
-0.1350918 -0.028926646 -0.046266153
-0.13570383 -0.029026501 -0.045990948
-0.1364283 -0.029000012 -0.045472689
-0.13704142 -0.029099993 -0.045196936
-0.13765493 -0.029200044 -0.044920985
-0.053081173 0.016782816 -0.039132021
-0.052319504 0.014398222 -0.042817488
-0.051816724 0.012462656 -0.045731891
-0.051818594 0.01138707 -0.047163647
-0.052070983 0.010737269 -0.047860887
-0.052490152 0.010369463 -0.048071086
-0.052992888 0.010142209 -0.048038241
-0.053495623 0.0099149542 -0.048005398
-0.053998359 0.0096876994 -0.047972556
-0.054501094 0.0094604455 -0.047939714
-0.055088427 0.0093732746 -0.047663756
-0.055591334 0.0091459425 -0.047630906
-0.05609424 0.0089186095 -0.047598049
-0.056597147 0.0086912774 -0.047565196
-0.057100054 0.0084639452 -0.047532342
-0.057602964 0.0082366122 -0.047499489
-0.058105871 0.0080092801 -0.047466632
-0.058437224 0.0075029666 -0.047919992
-0.058939788 0.0072757895 -0.047887158
-0.059528444 0.0071879006 -0.047611281
-0.060117502 0.0070999507 -0.047335215
-0.060620409 0.0068726181 -0.047302362
-0.061123315 0.006645286 -0.047269505
-0.061539378 0.0062788827 -0.047479909
-0.061955161 0.00591273 -0.047690168
-0.062457725 0.0056855534 -0.047657333
-0.063047588 0.0055971188 -0.047381379
-0.063462846 0.0052312003 -0.047591671
-0.063702852 0.004588834 -0.048287276
-0.063942358 0.0039477856 -0.048981458
-0.12671962 -0.022649623 -0.042508505
-0.12602359 -0.024292555 -0.045162033
-0.12598194 -0.025158672 -0.046343766
-0.12615703 -0.02576733 -0.047037803
-0.12633175 -0.026374746 -0.047730424
-0.12683123 -0.026600529 -0.047697794
-0.12765701 -0.026445376 -0.046939813
-0.128157 -0.026671391 -0.046907146
-0.1285478 -0.027024318 -0.047116451
-0.12904763 -0.027250256 -0.047083803
-0.12954746 -0.027476193 -0.047051147
-0.13004728 -0.02770213 -0.047018494
-0.13054711 -0.027928067 -0.046985839
-0.13104692 -0.028154006 -0.046953186
-0.13165694 -0.028253494 -0.046678498
-0.13215694 -0.028479509 -0.046645831
-0.13265693 -0.028705524 -0.046613172
-0.13304622 -0.029057758 -0.046822574
-0.13354604 -0.029283697 -0.046789926
-0.13426803 -0.02925742 -0.046272919
-0.13487957 -0.029357351 -0.04599781
-0.13537991 -0.029583521 -0.045965124
-0.13599204 -0.029683597 -0.045689814
-0.1368289 -0.029531287 -0.044928223
-0.13744235 -0.029631482 -0.044652183
-0.052441951 0.014533885 -0.041557543
-0.051937968 0.012595092 -0.044481166
-0.052107207 0.01180036 -0.045428377
-0.052108485 0.010726137 -0.046860754
-0.052276913 0.0099366913 -0.047801454
-0.052779645 0.0097094374 -0.047768608
-0.053198431 0.0093421098 -0.047978766
-0.053700991 0.0091149332 -0.047945939
-0.054203555 0.0088877566 -0.047913104
-0.054790586 0.008800419 -0.047637239
-0.055378016 0.0087130219 -0.04736118
-0.055880923 0.0084856898 -0.047328327
-0.056213807 0.0079790493 -0.047781777
-0.056801524 0.0078914016 -0.047505863
-0.057218928 0.0075246962 -0.047716115
-0.057636052 0.0071582426 -0.047926217
-0.058052883 0.0067920405 -0.048136178
-0.05864083 0.0067040455 -0.047860578
-0.05922918 0.0066159903 -0.047584787
-0.059817933 0.0065278746 -0.047308803
-0.060320668 0.0063006203 -0.047275964
-0.060823403 0.0060733659 -0.047243118
-0.061239429 0.0057072835 -0.047453456
-0.061655175 0.0053414525 -0.047663655
-0.062157564 0.0051143537 -0.047630832
-0.062747113 0.0050257533 -0.047354963
-0.063337073 0.0049370932 -0.047078904
-0.063577287 0.004294809 -0.047775276
-0.063555039 0.0032407467 -0.049196478
-0.064056225 0.0030141911 -0.049163736
-0.126397 -0.023211889 -0.042483736
-0.12537736 -0.025235625 -0.045865379
-0.12544495 -0.025971727 -0.046802305
-0.1258367 -0.026324892 -0.047011647
-0.12611988 -0.026804715 -0.047462534
-0.12661937 -0.0270305 -0.047429904
-0.12733616 -0.027002707 -0.046913687
-0.12794492 -0.027101802 -0.046638984
-0.1283358 -0.027454583 -0.046848383
-0.12883563 -0.02768052 -0.046815731
-0.12922607 -0.028032983 -0.047024995
-0.12972572 -0.028258843 -0.046992354
-0.13022538 -0.028484706 -0.046959713
-0.13072504 -0.028710566 -0.046927072
-0.13122469 -0.028936427 -0.046894427
-0.13183457 -0.029036146 -0.04661981
-0.13233438 -0.029262085 -0.046587158
-0.13272363 -0.029614009 -0.046796504
-0.1332233 -0.02983987 -0.046763863
-0.13383384 -0.029939899 -0.046489201
-0.13444482 -0.030039996 -0.046214353
-0.13505621 -0.030140162 -0.045939315
-0.13555638 -0.030366253 -0.045906641
-0.13628024 -0.030340696 -0.04538868
-0.13722977 -0.030062923 -0.044383381
-0.052734047 0.013867924 -0.041252349
-0.052397016 0.01221536 -0.043685928
-0.052734017 0.011703533 -0.044144236
-0.052314609 0.0099247387 -0.046801604
-0.052566402 0.0092766657 -0.047498979
-0.052985258 0.0089094862 -0.04770923
-0.053319894 0.0084029026 -0.04816211
-0.053906221 0.0083154589 -0.047886517
-0.054492947 0.0082279565 -0.047610734
-0.054995511 0.0080007799 -0.047577899
-0.055498075 0.0077736028 -0.047545072
-0.056000635 0.0075464267 -0.047512237
-0.056503195 0.0073192501 -0.047479406
-0.056835424 0.0068137557 -0.047932442
-0.057252388 0.0064477958 -0.048142329
-0.057754435 0.006220853 -0.048109531
-0.058256481 0.0059939092 -0.048076734
-0.058930121 0.0060444716 -0.047558308
-0.059432514 0.0058173728 -0.047525488
-0.060021132 0.0057290136 -0.047249582
-0.060350951 0.0052246079 -0.047702778
-0.060766712 0.0048591928 -0.047912743
-0.061268762 0.0046322495 -0.047879945
-0.061770804 0.0044053057 -0.047847144
-0.062446859 0.0044547799 -0.047328565
-0.063036509 0.0043659541 -0.047052588
-0.06336426 0.0038624818 -0.047505919
-0.063429639 0.0029467633 -0.048685662
-0.063931003 0.0027201301 -0.04865291
-0.12732203 -0.021473555 -0.038550742
-0.12455634 -0.025567882 -0.045872286
-0.12473288 -0.026176123 -0.046566807
-0.12523288 -0.026402138 -0.046534143
-0.12562469 -0.026755156 -0.046743575
-0.1261245 -0.026981095 -0.046710923
-0.1264075 -0.027460473 -0.047162015
-0.12690698 -0.027686257 -0.047129385
-0.12762398 -0.02765891 -0.046612963
-0.12812379 -0.027884847 -0.046580311
-0.12851448 -0.02823724 -0.046789657
-0.12890491 -0.028589392 -0.046998862
-0.1295138 -0.028688962 -0.046724375
-0.12990387 -0.029040961 -0.046933603
-0.13051309 -0.029140683 -0.046659093
-0.13101274 -0.029366545 -0.046626449
-0.1315124 -0.029592406 -0.046593808
-0.13201205 -0.029818267 -0.046561167
-0.13229094 -0.030295549 -0.047012206
-0.13290077 -0.030395664 -0.046737816
-0.13362184 -0.030370163 -0.04622113
-0.13423274 -0.030470407 -0.045946188
-0.13473272 -0.03069642 -0.045913525
-0.13523273 -0.030922435 -0.045880862
-0.13584439 -0.031022903 -0.045605712
-0.052941971 0.014146233 -0.039740108
-0.05302614 0.013201963 -0.040947154
-0.053025521 0.012118906 -0.04239672
-0.052436251 0.010053368 -0.045555361
-0.0526044 0.0092640342 -0.046498816
-0.05277209 0.0084768627 -0.047439691
-0.053190731 0.0081100836 -0.047649886
-0.053693123 0.0078829844 -0.047617067
-0.054195516 0.0076558855 -0.047584247
-0.054782342 0.0075681568 -0.047308359
-0.055284902 0.0073409802 -0.047275528
-0.055617962 0.0068354709 -0.047728706
-0.056120183 0.0066084494 -0.047695898
-0.056452442 0.0061037876 -0.048148476
-0.056954317 0.0058769216 -0.048115689
-0.057456192 0.0056500561 -0.048082899
-0.058043528 0.0055617304 -0.04780747
-0.058545578 0.0053347871 -0.047774669
-0.059047624 0.0051078438 -0.047741875
-0.059549671 0.0048809005 -0.047709078
-0.059965566 0.0045157275 -0.047918968
-0.060553759 0.0044270139 -0.047643479
-0.061055809 0.0042000702 -0.047610678
-0.061557855 0.0039731273 -0.04757788
-0.061973061 0.003608265 -0.047787819
-0.062474936 0.0033813994 -0.047755033
-0.06315124 0.0034301551 -0.047236566
-0.063653454 0.0032031341 -0.047203753
-0.064155668 0.0029761128 -0.047170945
-0.12373589 -0.025899913 -0.045879189
-0.12380568 -0.026634607 -0.046815455
-0.12376795 -0.027493797 -0.047990352
-0.12491286 -0.026959483 -0.046508159
-0.12541267 -0.027185421 -0.046475507
-0.1259125 -0.027411358 -0.046442851
-0.12630394 -0.027763912 -0.04665225
-0.12669513 -0.028116228 -0.046861496
-0.1271946 -0.02834201 -0.046828866
-0.12769409 -0.028567795 -0.046796232
-0.12808466 -0.028919715 -0.047005367
-0.12869306 -0.029019363 -0.046730977
-0.12930185 -0.02911908 -0.046456393
-0.12980151 -0.029344941 -0.046423756
-0.13030116 -0.029570801 -0.046391115
-0.13080081 -0.029796662 -0.04635847
-0.13119046 -0.030148283 -0.04656782
-0.13146982 -0.030625179 -0.047018703
-0.13196895 -0.030850809 -0.046986096
-0.13257846 -0.030951081 -0.046711791
-0.13329907 -0.030925967 -0.046195261
-0.13379872 -0.031151827 -0.04616262
-0.13429837 -0.031377688 -0.046129979
-0.13479802 -0.031603549 -0.046097334
-0.13552065 -0.031578865 -0.045580037
-0.052811153 0.013851954 -0.039218932
-0.052895579 0.012907866 -0.040427297
-0.053318232 0.012536002 -0.040641956
-0.05331701 0.011454323 -0.042092159
-0.05272644 0.0093917549 -0.045252156
-0.05272644 0.0083235921 -0.046683423
-0.052977633 0.0076776086 -0.04738044
-0.053480025 0.0074505094 -0.047347616
-0.053982414 0.0072234105 -0.0473148
-0.0544005 0.0068571856 -0.04752497
-0.054818302 0.0064912112 -0.047734998
