# .PCD v0.7 - Point Cloud Data file format
VERSION 0.7
FIELDS x y z
SIZE 4 4 4
TYPE F F F
COUNT 1 1 1
WIDTH 1223
HEIGHT 1
VIEWPOINT 0 0 0 1 0 0 0
POINTS 1223
DATA ascii
-0.091900736 -0.019714629 -0.013649528
-0.092335522 -0.019301482 -0.013647192
-0.092689097 -0.018736916 -0.013359231
-0.093124047 -0.018323611 -0.013356895
-0.093478039 -0.01775847 -0.013068719
-0.093913153 -0.017345013 -0.013066381
-0.094428897 -0.017083703 -0.013349886
-0.094863847 -0.016670398 -0.013347549
-0.094331205 -0.014420089 -0.0099009583
-0.094768114 -0.014004928 -0.0098986113
-0.095205016 -0.013589767 -0.0098962644
-0.0954808 -0.012865895 -0.0093168551
-0.09591803 -0.012450422 -0.0093145063
-0.096835963 -0.012961555 -0.011040762
-0.097351953 -0.0127012 -0.011325765
-0.097708464 -0.012132475 -0.011036075
-0.0979857 -0.011408597 -0.010458388
-0.098183811 -0.010528403 -0.0095914071
-0.098620869 -0.010113086 -0.0095890593
-0.099057943 -0.0096977679 -0.0095867105
-0.099495009 -0.0092824521 -0.0095843635
-0.083401479 -0.024551982 -0.0084467884
-0.084348224 -0.025036311 -0.010176287
-0.085122332 -0.025219914 -0.011324193
-0.085558251 -0.024805684 -0.011321852
-0.086078078 -0.024541095 -0.011606537
-0.086430103 -0.023977222 -0.011317168
-0.087033108 -0.023862785 -0.01188867
-0.087468714 -0.023448864 -0.01188633
-0.088070497 -0.023334907 -0.012456981
-0.08858861 -0.023071265 -0.012740818
-0.089023717 -0.022657806 -0.01273848
-0.089376323 -0.022094071 -0.012449967
-0.089729182 -0.021529915 -0.012161237
-0.090164617 -0.021116149 -0.012158898
-0.090846129 -0.021154605 -0.013015098
-0.091526113 -0.021192972 -0.013869383
-0.091960579 -0.020780131 -0.01386705
-0.091987967 -0.0196124 -0.012435937
-0.092423238 -0.019198788 -0.012433599
-0.092858516 -0.018785175 -0.012431261
-0.093374841 -0.018523229 -0.012715108
-0.093809955 -0.018109772 -0.01271277
-0.094325729 -0.017848177 -0.012996405
-0.094921499 -0.017738566 -0.013565378
-0.095356122 -0.017325569 -0.013563043
-0.095550403 -0.016455943 -0.012703421
-0.095101386 -0.014357679 -0.0095411949
-0.095377088 -0.013634383 -0.0089615202
-0.095733784 -0.013064514 -0.008670181
-0.096251555 -0.012803437 -0.0089568226
-0.096929029 -0.012851391 -0.0098201483
-0.09744557 -0.012590785 -0.01010593
-0.097882152 -0.012175933 -0.010103584
-0.09815973 -0.011451546 -0.0095247664
-0.098517202 -0.010881286 -0.0092338575
-0.098954275 -0.010465969 -0.0092315096
-0.099232972 -0.0097394828 -0.0086513842
-0.083905309 -0.025205173 -0.008667252
-0.084681243 -0.025388798 -0.0098191379
-0.085286461 -0.025273133 -0.010392617
-0.08580678 -0.025008174 -0.010677862
-0.086410478 -0.024892922 -0.011250056
-0.086929791 -0.024628403 -0.011534662
-0.087615177 -0.02466294 -0.012391881
-0.087967254 -0.024099953 -0.012103237
-0.088402525 -0.02368634 -0.0121009
-0.088920511 -0.023422565 -0.012384869
-0.089438111 -0.02315899 -0.012668627
-0.089790732 -0.022595651 -0.012380195
-0.090143621 -0.022031892 -0.012091546
-0.090578899 -0.021618281 -0.012089209
-0.091177911 -0.021505775 -0.012659281
-0.09185753 -0.021543751 -0.013513966
-0.092291996 -0.021130908 -0.013511632
-0.092320003 -0.019963833 -0.012079855
-0.092673957 -0.019398881 -0.011790987
-0.093190543 -0.01913661 -0.012075179
-0.093706749 -0.018874533 -0.012359158
-0.094141863 -0.018461075 -0.012356821
-0.094737992 -0.018350966 -0.012926483
-0.095333233 -0.01824102 -0.013495294
-0.095767699 -0.017828178 -0.01349296
-0.095882311 -0.016807245 -0.012347472
-0.095676132 -0.015170901 -0.010048549
-0.095871568 -0.014295267 -0.0091814315
-0.096147843 -0.013571925 -0.0086014876
-0.096745379 -0.013464944 -0.0091767376
-0.097182281 -0.013049782 -0.0091743907
-0.097778596 -0.012943271 -0.0097487811
-0.0980561 -0.012219459 -0.0091696968
-0.098413534 -0.011649487 -0.0088786548
-0.098850608 -0.011234169 -0.0088763079
-0.099129222 -0.010508259 -0.008295916
-0.099487469 -0.0099370033 -0.0080042193
-0.082927138 -0.026804607 -0.0083166128
-0.083364375 -0.026389135 -0.0083142649
-0.083801605 -0.025973661 -0.0083119161
-0.084493071 -0.026006816 -0.0091759674
-0.085098661 -0.025890647 -0.0097501418
-0.085703343 -0.025774648 -0.010323457
-0.086223304 -0.025509601 -0.010608624
-0.086742885 -0.02524475 -0.010893576
-0.08759515 -0.025576675 -0.012324493
-0.088113055 -0.025312394 -0.012608169
-0.088382192 -0.024600785 -0.012033595
-0.088817306 -0.024187326 -0.012031258
-0.08925242 -0.023773868 -0.01202892
-0.089852199 -0.023659796 -0.012598827
-0.090286985 -0.023246648 -0.012596491
-0.090639792 -0.022683553 -0.012308138
-0.091074742 -0.022270251 -0.012305803
-0.091591343 -0.022007201 -0.012589484
-0.092107564 -0.021744346 -0.012872955
-0.092542194 -0.021331351 -0.01287062
-0.09265203 -0.020315267 -0.011723774
-0.092924863 -0.019599125 -0.011147895
-0.093441553 -0.01933668 -0.011432434
-0.09403865 -0.019225836 -0.01200321
-0.094634868 -0.019115156 -0.012573134
-0.095149949 -0.018853379 -0.012856611
-0.095824614 -0.018894291 -0.013710438
-0.096258759 -0.018481756 -0.013708106
-0.096134223 -0.017006371 -0.011705068
-0.096009031 -0.015523256 -0.0096915336
-0.096445449 -0.01510856 -0.0096891886
-0.096641749 -0.014232856 -0.008821669
-0.097078651 -0.013817694 -0.0088193212
-0.097515553 -0.013402533 -0.0088169742
-0.098032072 -0.013141622 -0.0091032377
-0.098389372 -0.012572208 -0.0088122804
-0.098826282 -0.012157047 -0.0088099334
-0.099184006 -0.011587052 -0.0085187573
-0.082908764 -0.027721994 -0.0082504256
-0.083940282 -0.028346943 -0.010266059
-0.084713846 -0.028525328 -0.011412118
-0.085064963 -0.027963573 -0.011123
-0.085248053 -0.027104251 -0.010259034
-0.085683987 -0.026690021 -0.010256692
-0.086119913 -0.026275791 -0.01025435
-0.086639524 -0.026010655 -0.010539436
-0.087242149 -0.025894741 -0.011111305
-0.088009916 -0.026076583 -0.012254821
-0.08844471 -0.025663434 -0.012252485
-0.088796832 -0.025101241 -0.011964004
-0.089231782 -0.024687937 -0.011961668
-0.089666732 -0.024274634 -0.011959331
-0.090183862 -0.024010837 -0.012243143
-0.090700597 -0.023747236 -0.012526742
-0.091135234 -0.023334242 -0.012524407
-0.091569856 -0.022921246 -0.012522073
-0.092004478 -0.022508251 -0.012519739
-0.0924391 -0.022095256 -0.012517404
-0.092873737 -0.021682261 -0.012515069
-0.092984058 -0.0206667 -0.011367692
-0.093419336 -0.020253088 -0.011365353
-0.093935445 -0.019990595 -0.011649598
-0.09453173 -0.019879345 -0.012219787
-0.094966523 -0.019466195 -0.012217451
-0.095481485 -0.019204289 -0.01250106
-0.096155785 -0.019244809 -0.013355285
-0.09658993 -0.018832274 -0.013352953
-0.096066035 -0.016595876 -0.0099128308
-0.096422061 -0.016028609 -0.0096226111
-0.096778348 -0.015460915 -0.0093321744
-0.097214766 -0.015046218 -0.0093298303
-0.097411923 -0.014170445 -0.0084619056
-0.097848833 -0.013755282 -0.0084595587
-0.098365217 -0.01349424 -0.0087459562
-0.098801963 -0.013079234 -0.0087436102
-0.099159554 -0.012509797 -0.0084525179
-0.099517405 -0.011939934 -0.0081612077
-0.083836883 -0.029113133 -0.0099117858
-0.084947377 -0.029880079 -0.012203878
-0.085382007 -0.029467085 -0.012201543
-0.085481144 -0.028463148 -0.011053697
-0.085916422 -0.028049536 -0.011051361
-0.086267993 -0.027487604 -0.010762108
-0.086703427 -0.02707384 -0.010759768
-0.087138869 -0.026660072 -0.01075743
-0.087906793 -0.026840772 -0.011901473
-0.088424385 -0.026576117 -0.0121852
-0.088859007 -0.026163122 -0.012182865
-0.089128613 -0.025452411 -0.011608189
-0.089563563 -0.025039108 -0.011605852
-0.090080723 -0.024775026 -0.011889795
-0.09059751 -0.024511142 -0.012173527
-0.09111391 -0.024247453 -0.012457047
-0.09146677 -0.02368515 -0.012168856
-0.091901392 -0.023272155 -0.012166522
-0.092336014 -0.022859162 -0.012164188
-0.092851758 -0.022596087 -0.012447711
-0.093286224 -0.022183247 -0.012445376
-0.093234986 -0.020867342 -0.010724681
-0.093670428 -0.020453578 -0.010722344
-0.094428606 -0.020643534 -0.011866439
-0.094943762 -0.02038119 -0.012150179
-0.095298178 -0.019817237 -0.011861768
-0.095732972 -0.019404087 -0.011859432
-0.096167758 -0.018990938 -0.011857097
-0.096602544 -0.01857779 -0.011854761
-0.096398681 -0.016947968 -0.009556083
-0.096754834 -0.016380832 -0.0092657302
-0.097111255 -0.015813269 -0.0089751594
-0.097547665 -0.015398573 -0.0089728152
-0.097984083 -0.014983878 -0.0089704711
-0.098420493 -0.014569182 -0.008968127
-0.098777674 -0.01400073 -0.0086773364
-0.099214248 -0.013585879 -0.0086749913
-0.099571854 -0.013016846 -0.0083839819
-0.099929735 -0.012447386 -0.0080927555
-0.084675953 -0.03034992 -0.011278073
-0.085278913 -0.03023099 -0.011848327
-0.085629724 -0.029670708 -0.011559803
-0.085897021 -0.028962351 -0.010984448
-0.08624845 -0.028400971 -0.010695278
-0.086767241 -0.028135438 -0.010979773
-0.087368876 -0.028018111 -0.011550461
-0.087720595 -0.027456796 -0.011261718
-0.088238448 -0.027191812 -0.011545789
-0.088755921 -0.026927026 -0.011829649
-0.089190543 -0.026514033 -0.011827314
-0.089542814 -0.025952365 -0.011538783
-0.0899776 -0.025539218 -0.011536447
-0.090412393 -0.025126068 -0.011534112
-0.091092609 -0.025159983 -0.012389734
-0.091526911 -0.024747295 -0.012387401
-0.091798298 -0.024036061 -0.011813306
-0.092232928 -0.023623066 -0.011810971
-0.092748709 -0.023359707 -0.012094626
-0.093183175 -0.022946866 -0.012092293
-0.09361764 -0.022534026 -0.012089958
-0.093809888 -0.021670552 -0.011229008
-0.094244845 -0.021257248 -0.011226671
-0.095001318 -0.021445796 -0.012368738
-0.095435627 -0.021033108 -0.012366405
-0.095709927 -0.020319102 -0.011792294
-0.096064627 -0.019755127 -0.011503749
-0.096499413 -0.019341977 -0.011501414
-0.096934207 -0.01892883 -0.011499078
-0.09681125 -0.017452408 -0.0094872629
-0.097007737 -0.016580319 -0.0086204903
-0.097444154 -0.016165623 -0.0086181452
-0.097960114 -0.015903972 -0.0089041628
-0.098396361 -0.015489431 -0.0089018187
-0.098832622 -0.015074891 -0.0088994754
-0.09918981 -0.014506841 -0.0086087678
-0.099547282 -0.013938365 -0.0083178421
-0.099905007 -0.013369464 -0.0080267005
-0.084572785 -0.031114396 -0.010924594
-0.085175827 -0.030994894 -0.011495111
-0.085610449 -0.030581897 -0.011492776
-0.086045071 -0.030168904 -0.011490441
-0.086479709 -0.029755907 -0.011488107
-0.086997636 -0.029490264 -0.011771882
-0.087515183 -0.029224819 -0.012055445
-0.088032342 -0.028959572 -0.012338798
-0.088383779 -0.028399445 -0.01205078
-0.088735491 -0.027838899 -0.011762546
-0.089169949 -0.027426058 -0.011760212
-0.089604415 -0.027013216 -0.011757879
-0.089956708 -0.026451947 -0.011469429
-0.090391338 -0.026038952 -0.011467095
-0.091071323 -0.026071835 -0.012322473
-0.09158697 -0.025807859 -0.012605621
-0.091858201 -0.025097944 -0.012032116
-0.092048407 -0.024237659 -0.011171422
-0.0924832 -0.023824511 -0.011169085
-0.093080126 -0.023710486 -0.011739208
-0.093514584 -0.023297645 -0.011736874
-0.094190836 -0.023333577 -0.012591634
-0.094383515 -0.022471962 -0.011732207
-0.094898306 -0.022209132 -0.012015785
-0.095492765 -0.022096438 -0.01258464
-0.095926747 -0.021684058 -0.012582309
-0.096041463 -0.020670014 -0.011436743
-0.096396282 -0.020106168 -0.011148065
-0.096831076 -0.019693019 -0.01114573
-0.097265862 -0.019279869 -0.011143395
-0.097143777 -0.017804367 -0.0091306483
-0.097340636 -0.016932672 -0.0082634743
-0.097777054 -0.016517976 -0.0082611302
-0.098372251 -0.016408993 -0.0088355597
-0.098887481 -0.016147446 -0.009121282
-0.099402323 -0.015886094 -0.0094067901
-0.099838078 -0.015472018 -0.0094044497
-0.1000379 -0.014598032 -0.0085379072
-0.084469609 -0.03187887 -0.010571115
-0.085072741 -0.0317588 -0.011141894
-0.085507363 -0.031345803 -0.01113956
-0.086025655 -0.031079566 -0.011423465
-0.086460121 -0.030666728 -0.011421131
-0.087061092 -0.030547692 -0.01199064
-0.087495223 -0.030135158 -0.011988309
-0.087929368 -0.029722624 -0.011985976
-0.088528797 -0.029604379 -0.012554642
-0.088962607 -0.029192153 -0.012552312
-0.089231789 -0.028485022 -0.01197898
-0.08958368 -0.027924716 -0.011690827
-0.090100065 -0.027659955 -0.011974316
-0.090534203 -0.027247421 -0.011971984
-0.091050051 -0.026983008 -0.012255263
-0.091484025 -0.026570627 -0.012252931
-0.091918007 -0.026158247 -0.012250599
-0.092351981 -0.025745867 -0.012248268
-0.09246137 -0.02473788 -0.011102204
-0.092733659 -0.024026105 -0.010526722
-0.093249649 -0.023762401 -0.010811066
-0.093846001 -0.023648424 -0.011381456
-0.094521873 -0.023683965 -0.012236612
-0.095036052 -0.023420976 -0.012519686
-0.095469862 -0.023008749 -0.012517356
-0.09590368 -0.022596523 -0.012515026
-0.096257791 -0.022034442 -0.012227288
-0.096372999 -0.021020923 -0.011081192
-0.096807621 -0.020607928 -0.011078858
-0.097242251 -0.020194933 -0.011076523
-0.097676881 -0.019781936 -0.011074188
-0.097476304 -0.018156325 -0.0087740347
-0.09775316 -0.017437499 -0.0081950864
-0.098348156 -0.017327866 -0.0087693511
-0.098784082 -0.016913636 -0.0087670088
-0.099220008 -0.016499406 -0.0087646674
-0.099734724 -0.01623792 -0.0090503087
-0.10017049 -0.015823847 -0.0090479683
-0.10060625 -0.01540977 -0.0090456279
-0.084535018 -0.032935701 -0.010791014
-0.084969647 -0.032522704 -0.010788678
-0.085404277 -0.032109708 -0.010786343
-0.085838899 -0.031696711 -0.010784009
-0.086357072 -0.031430349 -0.011068047
-0.08695811 -0.031310745 -0.011637819
-0.087558255 -0.031191319 -0.012206744
-0.087909266 -0.030632436 -0.011918891
-0.088508487 -0.03051356 -0.012487395
-0.089024507 -0.030248228 -0.012770166
-0.089375794 -0.029689413 -0.012482735
-0.089727342 -0.029130183 -0.012195093
-0.090079159 -0.028570537 -0.011907234
-0.09051314 -0.028158156 -0.011904904
-0.090947114 -0.027745776 -0.011902572
-0.091381088 -0.027333396 -0.011900241
-0.091815069 -0.026921015 -0.011897909
-0.092249043 -0.026508635 -0.011895578
-0.092601925 -0.025947802 -0.011607502
-0.092792906 -0.025088789 -0.010746653
-0.093065448 -0.024377277 -0.010170906
-0.093581304 -0.024113443 -0.010455383
-0.094338492 -0.024297666 -0.011598174
-0.094933145 -0.02418346 -0.012167128
-0.095446967 -0.023920383 -0.012450123
-0.09580078 -0.023359006 -0.012162467
-0.096154854 -0.02279721 -0.011874597
-0.096509196 -0.022234997 -0.011586512
-0.096624814 -0.021221397 -0.010439035
-0.097059608 -0.020808248 -0.010436699
-0.097653121 -0.020696472 -0.011007366
-0.098087586 -0.02028363 -0.011005033
-0.097729288 -0.018356329 -0.0081290919
-0.098165378 -0.017941944 -0.0081267497
-0.09860146 -0.01752756 -0.0081244074
-0.099116609 -0.017265594 -0.0084103951
-0.099631362 -0.017003825 -0.0086961687
-0.10014573 -0.01674225 -0.0089817299
-0.10065973 -0.016480872 -0.0092670768
-0.10109516 -0.016067106 -0.0092647374
-0.084347643 -0.033553764 -0.010151083
-0.085704438 -0.03474056 -0.013290899
-0.085803688 -0.033748202 -0.012148944
-0.085400201 -0.031874765 -0.009282642
-0.085835479 -0.031461153 -0.0092803035
-0.086688474 -0.031781126 -0.010712628
-0.087455362 -0.0319538 -0.011854185
-0.087971963 -0.031687837 -0.012137297
-0.088570692 -0.031568263 -0.012705215
-0.089168526 -0.031448867 -0.01327229
-0.089437358 -0.030744728 -0.01270056
-0.089870691 -0.03033296 -0.012698231
-0.090140246 -0.029627467 -0.012125649
-0.090573899 -0.029215394 -0.012123319
-0.091007553 -0.028803321 -0.01212099
-0.091441207 -0.028391248 -0.01211866
-0.09187486 -0.027979171 -0.01211633
-0.092146114 -0.027271403 -0.011542887
-0.092498958 -0.026710853 -0.01125468
-0.092770971 -0.026001347 -0.010679955
-0.093124442 -0.025439698 -0.010391103
-0.093397222 -0.024728449 -0.0098150894
-0.094074361 -0.024762822 -0.010672953
-0.094830245 -0.024945945 -0.011814568
-0.095344111 -0.024682583 -0.012097694
-0.095697887 -0.024121491 -0.011809908
-0.096051916 -0.023559978 -0.011521907
-0.096406221 -0.022998048 -0.011233691
-0.096840352 -0.022585517 -0.011231359
-0.096956477 -0.021572439 -0.010083351
-0.097391263 -0.021159288 -0.010081016
-0.097984537 -0.021047251 -0.010651948
-0.098418996 -0.020634409 -0.010649614
-0.099528007 -0.017769728 -0.0083420286
-0.10004242 -0.017507868 -0.0086277211
-0.10055644 -0.017246203 -0.0089132003
-0.10114823 -0.017136918 -0.0094858566
-0.10142732 -0.016418671 -0.0089085223
-0.085685208 -0.035646144 -0.013223503
-0.086284526 -0.035523858 -0.013789563
-0.086134486 -0.034098327 -0.011794186
-0.085983656 -0.032665361 -0.009788393
-0.08641845 -0.032252207 -0.0097860573
-0.087103128 -0.032278165 -0.010643634
-0.0878691 -0.032450035 -0.011784868
-0.088467911 -0.032329895 -0.01235305
-0.088901237 -0.031918131 -0.012350721
-0.089498833 -0.031798474 -0.012918061
-0.089931838 -0.031387012 -0.012915734
-0.090201244 -0.030682826 -0.012343738
-0.090634577 -0.030271059 -0.012341411
-0.09106791 -0.029859291 -0.012339083
-0.091501243 -0.029447526 -0.012336755
-0.091934569 -0.029035756 -0.012334427
-0.09228681 -0.0284767 -0.012046942
-0.092395984 -0.027473906 -0.010901858
-0.092667915 -0.026764967 -0.01032687
-0.093021356 -0.026203604 -0.010037887
-0.093455978 -0.025790609 -0.010035552
-0.0938906 -0.025377613 -0.010033217
-0.09456668 -0.025411235 -0.010890198
-0.095321275 -0.025593257 -0.012030642
-0.095754765 -0.025181336 -0.012028313
-0.095948979 -0.024322746 -0.011169217
-0.096303247 -0.023761101 -0.01088087
-0.096737377 -0.023348566 -0.010878537
-0.097171523 -0.022936033 -0.010876206
-0.097288139 -0.021923479 -0.009727668
-0.097722925 -0.021510331 -0.0097253323
-0.098315947 -0.02139803 -0.01029653
-0.098750412 -0.020985188 -0.010294196
-0.099939093 -0.018273486 -0.0082737133
-0.10045316 -0.018011536 -0.0085593248
-0.10127924 -0.018356696 -0.0099935271
-0.10171386 -0.017943699 -0.0099911932
-0.1020708 -0.017378837 -0.0097019756
-0.084491901 -0.034523465 -0.0091548599
-0.08559797 -0.035272602 -0.011444088
-0.086031623 -0.034860529 -0.011441758
-0.086381927 -0.034303222 -0.011153728
-0.086565807 -0.033454187 -0.010293013
-0.087000117 -0.0330415 -0.01029068
-0.08768338 -0.033066545 -0.011146736
-0.088282548 -0.032945901 -0.011715603
-0.088716045 -0.032533977 -0.011713275
-0.089231789 -0.032267995 -0.011996228
-0.089829132 -0.032148078 -0.01256383
-0.0903439 -0.031882536 -0.012846152
-0.090776749 -0.031471226 -0.012843827
-0.091046676 -0.030767364 -0.01227199
-0.091479853 -0.030355752 -0.012269663
-0.091913022 -0.029944135 -0.012267336
-0.092346191 -0.029532522 -0.012265009
-0.092536464 -0.028679427 -0.011406816
-0.092564866 -0.027528588 -0.0099737858
-0.092999332 -0.027115745 -0.0099714519
-0.09343379 -0.026702903 -0.0099691181
-0.094029561 -0.026586821 -0.010539709
-0.094544113 -0.026322655 -0.01082352
-0.095138386 -0.026206983 -0.011392838
-0.095731787 -0.026091486 -0.011961311
-0.096165121 -0.025679719 -0.011958984
-0.096280023 -0.024673134 -0.010814195
-0.09663441 -0.024111617 -0.010525716
-0.097068548 -0.023699082 -0.010523384
-0.097502686 -0.023286551 -0.010521051
-0.097619794 -0.022274518 -0.0093719848
-0.09805458 -0.021861371 -0.009369649
-0.098568395 -0.02159857 -0.0096543198
-0.098924153 -0.021035071 -0.0093649775
-0.10034987 -0.018776868 -0.0082054492
-0.10125414 -0.019271761 -0.0099271089
-0.1016886 -0.018858919 -0.009924775
-0.10212306 -0.018446077 -0.0099224402
-0.10240246 -0.017729877 -0.0093462924
-0.085594192 -0.035042897 -0.0099447267
-0.086028494 -0.034630209 -0.0099423947
-0.086546212 -0.034362949 -0.010226533
-0.086980358 -0.033950418 -0.010224201
-0.087414488 -0.03353788 -0.010221869
-0.087931499 -0.033271126 -0.010505798
-0.088448122 -0.033004571 -0.010789516
-0.089046709 -0.032883976 -0.011358649
-0.089480199 -0.032472052 -0.01135632
-0.090241231 -0.032643322 -0.012494378
-0.090837166 -0.032523263 -0.013060979
-0.091269694 -0.032112259 -0.013058656
-0.091377109 -0.031117102 -0.011917628
-0.091810279 -0.030705485 -0.011915301
-0.092243448 -0.030293873 -0.011912975
-0.092676617 -0.029882258 -0.011910647
-0.092867255 -0.029029552 -0.011052058
-0.092977323 -0.028027209 -0.0099050663
-0.093411632 -0.027614521 -0.0099027324
-0.094007194 -0.027497802 -0.010473161
-0.094441175 -0.027085422 -0.01047083
-0.094875149 -0.026673043 -0.010468498
-0.095469184 -0.02655711 -0.011038081
-0.09606234 -0.026441351 -0.011606817
-0.096495673 -0.026029585 -0.01160449
-0.096611068 -0.02502352 -0.010459173
-0.096886039 -0.024313021 -0.0098840697
-0.097320341 -0.023900334 -0.0098817367
-0.09775465 -0.023487646 -0.0098794028
-0.097951457 -0.02262556 -0.0090163015
-0.098465301 -0.022362476 -0.0093011037
-0.098899931 -0.021949479 -0.0092987679
-0.099177025 -0.021235626 -0.0087219402
-0.10150769 -0.019471509 -0.0092847608
-0.10194231 -0.019058514 -0.009282426
-0.10229933 -0.018494068 -0.0089929448
-0.085925482 -0.035393544 -0.0095894411
-0.086359784 -0.03498086 -0.0095871072
-0.086877383 -0.034713466 -0.0098713795
-0.087394588 -0.034446273 -0.010155439
-0.087745659 -0.033888396 -0.0098667154
-0.088262536 -0.033621512 -0.010150777
-0.088696517 -0.033209134 -0.010148446
-0.089377381 -0.03323397 -0.011004023
-0.089810878 -0.03282205 -0.011001695
-0.090571411 -0.032992799 -0.01214028
-0.0911671 -0.032872479 -0.012707143
-0.091599636 -0.032461476 -0.012704819
-0.091788784 -0.03161291 -0.011848391
-0.092140704 -0.031055223 -0.011560939
-0.092492886 -0.030497124 -0.011273273
-0.092926227 -0.030085355 -0.011270947
-0.0931172 -0.02923256 -0.010411324
-0.093551025 -0.028820332 -0.010408994
-0.093904257 -0.02826057 -0.010120471
-0.094338231 -0.02784819 -0.010118139
-0.09477222 -0.027435809 -0.010115809
-0.095206194 -0.027023429 -0.010113477
-0.095799983 -0.026907235 -0.010683324
-0.09631329 -0.026643246 -0.010966766
-0.096667297 -0.026083089 -0.010678665
-0.097021557 -0.025522517 -0.010390351
-0.097217329 -0.02466367 -0.0095287841
-0.097572327 -0.024101732 -0.0092396103
-0.097927593 -0.023539376 -0.0089502223
-0.098362215 -0.023126381 -0.0089478875
-0.099033296 -0.023162518 -0.0098060807
-0.099467441 -0.022749985 -0.0098037478
-0.099508807 -0.021586798 -0.0083661238
-0.10160564 -0.019369043 -0.0080667362
-0.1021962 -0.019258257 -0.0086395973
-0.086774401 -0.035476517 -0.0095185572
-0.087208539 -0.035063986 -0.0095162261
-0.087642685 -0.034651451 -0.0095138941
-0.087993979 -0.034093443 -0.0092248227
-0.08859358 -0.033971902 -0.0097957551
-0.089027554 -0.03355952 -0.009793425
-0.089625947 -0.03343847 -0.010363509
-0.090468742 -0.033753581 -0.011788505
-0.090901598 -0.033342272 -0.011786181
-0.091497041 -0.033221696 -0.012353307
-0.091929562 -0.032810692 -0.012350984
-0.092281148 -0.03225407 -0.012064038
-0.09247113 -0.031404957 -0.011206578
-0.092823438 -0.030846991 -0.01091878
-0.093256772 -0.030435223 -0.010916453
-0.093448125 -0.029582817 -0.010056434
-0.093881942 -0.02917059 -0.010054104
-0.094556771 -0.029199921 -0.010909469
-0.094990104 -0.028788153 -0.010907141
-0.095263466 -0.02808151 -0.010333225
-0.09569712 -0.027669437 -0.010330897
-0.096130781 -0.027257364 -0.010328567
-0.096564434 -0.026845289 -0.010326236
-0.096998096 -0.026433216 -0.010323908
-0.097352475 -0.025872774 -0.010035461
-0.097786292 -0.025460547 -0.010033131
-0.097903743 -0.024452511 -0.0088841924
-0.098259121 -0.023890285 -0.0085946713
-0.098693751 -0.02347729 -0.0085923364
-0.099364467 -0.023513034 -0.0094509264
-0.09995538 -0.023399413 -0.010021479
-0.099997625 -0.022238305 -0.008585332
-0.10027555 -0.021524666 -0.0080079716
-0.087271787 -0.036116477 -0.0097365007
-0.087705605 -0.035704251 -0.0097341696
-0.087890968 -0.034856778 -0.0088718701
-0.08832527 -0.03444409 -0.0088695372
-0.088924624 -0.034322288 -0.0094407341
-0.089605235 -0.034345888 -0.010297101
-0.090366073 -0.034514368 -0.011436732
-0.090798929 -0.034103058 -0.011434407
-0.091231778 -0.033691749 -0.011432082
-0.091826975 -0.033570912 -0.011999471
-0.092259504 -0.033159908 -0.011997147
-0.092692032 -0.032748904 -0.011994824
-0.092882402 -0.031900659 -0.011137604
-0.093153991 -0.031196855 -0.010564286
-0.093506686 -0.030638602 -0.010276144
-0.093859643 -0.030079931 -0.0099877864
-0.09445399 -0.029961554 -0.010557303
-0.094887324 -0.029549787 -0.010554976
-0.095320657 -0.029138019 -0.010552648
-0.09575399 -0.028726252 -0.010550319
-0.096107654 -0.02816708 -0.010262172
-0.096541144 -0.02775516 -0.010259843
-0.096895233 -0.027195418 -0.009971479
-0.097328886 -0.026783342 -0.0099691506
-0.097683392 -0.02622303 -0.009680572
-0.09811721 -0.025810804 -0.0096782409
-0.098551035 -0.025398577 -0.0096759107
-0.098669618 -0.024390448 -0.0085264398
-0.099104077 -0.023977606 -0.0085241059
-0.099695623 -0.023863554 -0.0090957731
-0.1002863 -0.02374967 -0.00966659
-0.10064204 -0.023188019 -0.0093777906
-0.087602705 -0.036466733 -0.0093816109
-0.088036522 -0.036054507 -0.0093792807
-0.088305019 -0.035352487 -0.0088035855
-0.088656552 -0.03479474 -0.0085142506
-0.089255668 -0.034672678 -0.009085712
-0.090508394 -0.03570848 -0.011939596
-0.090940766 -0.035297625 -0.011937274
-0.091291852 -0.034742139 -0.011650282
-0.091561958 -0.034041226 -0.011077983
-0.092156917 -0.033920132 -0.011645635
-0.092589438 -0.033509124 -0.011643312
-0.093021974 -0.03309812 -0.011640987
-0.093293369 -0.032395992 -0.011068683
-0.093403861 -0.031400517 -0.0099238474
-0.093837358 -0.030988598 -0.0099215182
-0.094351202 -0.030723188 -0.010205138
-0.094784535 -0.030311421 -0.010202809
-0.095217876 -0.029899653 -0.010200482
-0.095651209 -0.029487886 -0.010198154
-0.096084543 -0.029076118 -0.010195826
-0.096517876 -0.028664351 -0.010193499
-0.096951209 -0.028252585 -0.01019117
-0.097305313 -0.027693236 -0.0099028889
-0.097659685 -0.027133469 -0.0096143931
-0.09801431 -0.026573287 -0.0093256822
-0.098526992 -0.026309323 -0.0096097337
-0.098881952 -0.025748834 -0.0093210209
-0.099315763 -0.025336606 -0.0093186917
-0.099514097 -0.024477551 -0.0084559266
-0.10002679 -0.024214072 -0.0087406198
-0.10046094 -0.023801537 -0.0087382868
-0.10097308 -0.023538407 -0.0090227686
-0.10117335 -0.022677021 -0.0081593525
-0.087933622 -0.036816988 -0.0090267221
-0.088532597 -0.036693558 -0.0095971655
-0.088966094 -0.036281638 -0.0095948363
-0.089152724 -0.035435446 -0.008733023
-0.09007892 -0.035891563 -0.010447752
-0.090919621 -0.036201663 -0.011870479
-0.091351837 -0.035790965 -0.011868157
-0.091702953 -0.035235867 -0.011581247
-0.092054322 -0.034680352 -0.011294122
-0.092486843 -0.034269348 -0.011291798
-0.093000054 -0.03400331 -0.011574279
-0.093432426 -0.033592459 -0.011571956
-0.093784437 -0.033036336 -0.011284828
-0.093734533 -0.031750515 -0.0095692212
-0.09416803 -0.031338595 -0.0095668929
-0.094681755 -0.031073052 -0.0098506436
-0.095115088 -0.030661287 -0.0098483162
-0.095548421 -0.030249519 -0.0098459879
-0.095981762 -0.029837752 -0.0098436605
-0.096494623 -0.029572869 -0.010127203
-0.097007103 -0.029308181 -0.010410535
-0.097360961 -0.028749639 -0.010122549
-0.097635984 -0.028043233 -0.0095482636
-0.098069482 -0.027631311 -0.0095459344
-0.098424137 -0.027071523 -0.0092573063
-0.09885779 -0.026659448 -0.0092549762
-0.09921287 -0.026099091 -0.0089661321
-0.09964668 -0.025686864 -0.008963801
-0.10008051 -0.025274638 -0.0089614717
-0.10043617 -0.024713553 -0.0086724097
-0.1007921 -0.024152054 -0.0083831334
-0.10122624 -0.02373952 -0.0083808014
-0.088264547 -0.037167247 -0.0086718323
-0.088945642 -0.037187666 -0.0095287394
-0.089461111 -0.036920048 -0.0098123988
-0.089894287 -0.036508434 -0.0098100724
-0.090490922 -0.036385413 -0.010379085
-0.091330558 -0.036694486 -0.011801413
-0.091762602 -0.03628394 -0.011799092
-0.092113741 -0.035729226 -0.011512263
-0.092384256 -0.035029568 -0.010940285
-0.092897497 -0.034763247 -0.011222895
-0.093329869 -0.034352399 -0.011220573
-0.093922853 -0.034231205 -0.011787488
-0.094354898 -0.033820659 -0.011785167
-0.094145641 -0.032246456 -0.0095008062
-0.094578974 -0.031834688 -0.0094984779
-0.095172346 -0.031715095 -0.010067935
-0.095685124 -0.031449709 -0.010351184
-0.095878974 -0.030599385 -0.0094914939
-0.09655083 -0.030627092 -0.010346534
-0.096983679 -0.030215785 -0.010344208
-0.097416535 -0.029804476 -0.010341883
-0.097691394 -0.029099377 -0.0097681871
-0.09804564 -0.028540548 -0.0094798552
-0.098400153 -0.027981307 -0.0091913091
-0.098990902 -0.027864533 -0.0097612068
-0.099345639 -0.027305247 -0.0094728721
-0.099622235 -0.026597502 -0.0088978903
-0.099977605 -0.026037121 -0.0086089121
-0.10041142 -0.025624894 -0.0086065819
-0.10092321 -0.025361281 -0.0088909017
-0.10112327 -0.024502574 -0.0080279801
-0.1015574 -0.024090039 -0.0080256481
-0.087109528 -0.039596368 -0.0091858832
-0.087542854 -0.039184596 -0.0091835568
-0.088677995 -0.037661541 -0.0086036995
-0.089358367 -0.037681401 -0.0094603635
-0.089955397 -0.037557509 -0.010029637
-0.090306513 -0.037002239 -0.0097416174
-0.090902619 -0.036878899 -0.010310472
-0.091579013 -0.036899582 -0.011163332
-0.092011221 -0.036488883 -0.01116101
-0.092443429 -0.036078185 -0.011158689
-0.092794947 -0.035523191 -0.010871514
-0.093227319 -0.03511234 -0.010869191
-0.093740061 -0.03484609 -0.011151723
-0.094252415 -0.034580037 -0.011434046
-0.094684474 -0.034169488 -0.011431725
-0.094716758 -0.03303311 -0.01000406
-0.094909526 -0.032184556 -0.0091439839
-0.095502652 -0.032064702 -0.0097137038
-0.096094899 -0.031945027 -0.01028258
-0.096606955 -0.031679753 -0.010565538
-0.096960284 -0.031122714 -0.010277931
-0.097313866 -0.030565262 -0.0099901091
-0.097746715 -0.030153953 -0.0099877845
-0.09802182 -0.029449113 -0.0094138253
-0.098454989 -0.029037498 -0.009411498
-0.098888159 -0.028625883 -0.0094091715
-0.099321336 -0.02821427 -0.0094068442
-0.099754512 -0.027802654 -0.0094045168
-0.10010952 -0.027243348 -0.0091160508
-0.10038669 -0.026535556 -0.0085408026
-0.10082035 -0.026123481 -0.0085384734
-0.10125401 -0.025711406 -0.0085361432
-0.10168766 -0.025299333 -0.008533814
-0.087006748 -0.040358 -0.0088337185
-0.087688476 -0.040374842 -0.0096894894
-0.088121332 -0.039963529 -0.0096871639
-0.089173406 -0.038299166 -0.0088220797
-0.0896888 -0.038031135 -0.0091060018
-0.090285584 -0.037906986 -0.0096755391
-0.090718433 -0.037495676 -0.0096732127
-0.09131401 -0.037372015 -0.010241907
-0.091908708 -0.037248541 -0.010809758
-0.092421748 -0.036981598 -0.011092207
-0.0929344 -0.036714852 -0.011374447
-0.093205333 -0.036016446 -0.010802792
-0.093637541 -0.035605747 -0.010800472
-0.09414994 -0.035339411 -0.011082924
-0.094661966 -0.035073273 -0.011365167
-0.095014036 -0.034518316 -0.011078281
-0.095046945 -0.033382591 -0.0096499613
-0.095240071 -0.03253442 -0.0087894909
-0.095673412 -0.032122653 -0.0087871626
-0.09642496 -0.032294374 -0.009928612
-0.097016081 -0.032174617 -0.010496905
-0.097527422 -0.031909455 -0.010779575
-0.097801954 -0.031206964 -0.010207055
-0.098155715 -0.03064975 -0.0099193146
-0.098431021 -0.029945539 -0.0093455184
-0.098785415 -0.029387234 -0.0090571363
-0.099218592 -0.028975621 -0.0090548098
-0.099651761 -0.028564004 -0.0090524824
-0.10008494 -0.028152391 -0.009050156
-0.10044007 -0.027593212 -0.0087615568
-0.10071749 -0.026885681 -0.008186046
-0.1015848 -0.026061535 -0.0081813857
-0.08690396 -0.041119631 -0.0084815519
-0.087668523 -0.041277997 -0.0096234549
-0.088101216 -0.040866841 -0.0096211312
-0.088451505 -0.040313009 -0.0093330657
-0.088719711 -0.039615717 -0.0087586204
-0.089070626 -0.039060794 -0.0084699132
-0.089913823 -0.039365251 -0.0098973643
-0.090370618 -0.037825491 -0.0084629301
-0.091048613 -0.037845153 -0.0093191145
-0.091725096 -0.037864771 -0.010173394
-0.092319265 -0.037740976 -0.010741085
-0.092831962 -0.037473947 -0.011023455
-0.093344286 -0.037207119 -0.011305616
-0.093776017 -0.036796875 -0.011303297
-0.094207741 -0.036386635 -0.011300977
-0.09455952 -0.035832372 -0.011014176
-0.095071197 -0.035566147 -0.011296339
-0.095423296 -0.035011582 -0.011009535
-0.095137291 -0.033296056 -0.0084373243
-0.095570624 -0.032884285 -0.0084349969
-0.096003957 -0.032472517 -0.0084326686
-0.096992694 -0.03307981 -0.010430645
-0.097424902 -0.032669112 -0.010428322
-0.09801463 -0.032549214 -0.010995615
-0.098446518 -0.032138817 -0.010993294
-0.098564424 -0.031145178 -0.009850896
-0.098761328 -0.030295145 -0.0089912871
-0.099115841 -0.029736971 -0.0087027736
-0.099627353 -0.029472221 -0.0089866351
-0.10006037 -0.029060761 -0.0089843096
-0.10033729 -0.028354848 -0.0084093912
-0.10069266 -0.027795535 -0.0081204474
-0.086801179 -0.041881267 -0.0081293862
-0.087317444 -0.041611906 -0.0084135653
-0.088081114 -0.041769486 -0.0095551461
-0.088595964 -0.041500669 -0.00983827
-0.089028329 -0.041089818 -0.0098359473
-0.089214548 -0.040251173 -0.008976642
-0.089811236 -0.040125471 -0.0095458524
-0.090243764 -0.039714467 -0.0095435288
-0.090267837 -0.038587127 -0.0081107644
-0.09070117 -0.038175363 -0.0081084361
-0.091460109 -0.038338095 -0.0092508923
-0.09221679 -0.03850035 -0.010389963
-0.092729524 -0.038233045 -0.010672463
-0.093402639 -0.038252182 -0.011523344
-0.093834043 -0.037842244 -0.011521026
-0.094185427 -0.03728893 -0.011234518
-0.094616994 -0.036878839 -0.0112322
-0.095048569 -0.036468748 -0.011229881
-0.095797986 -0.036633346 -0.012363079
-0.09622892 -0.036223862 -0.012360764
-0.09586665 -0.034371421 -0.0095133241
-0.095901176 -0.033234153 -0.008080503
-0.096810974 -0.033694495 -0.0097941412
-0.097322389 -0.033428773 -0.010077071
-0.097912185 -0.033308309 -0.010644623
-0.09834408 -0.032897912 -0.010642303
-0.098775968 -0.032487519 -0.010639983
-0.099051222 -0.031785976 -0.010067784
-0.099248528 -0.030937286 -0.0092090545
-0.09960296 -0.030379765 -0.0089208372
-0.10003581 -0.029968455 -0.0089185126
-0.10046866 -0.029557148 -0.0089161862
-0.10066784 -0.028704712 -0.0080548972
-0.086781532 -0.042784873 -0.0080638584
-0.087297618 -0.042515278 -0.0083479555
-0.087813325 -0.042245883 -0.0086318431
-0.088411056 -0.042118702 -0.0092013106
-0.088925771 -0.041849755 -0.0094845649
-0.089358136 -0.041438904 -0.0094822422
-0.089872323 -0.041170307 -0.0097652888
-0.090304524 -0.040759608 -0.009762967
-0.090573698 -0.040063683 -0.0091896923
-0.091357477 -0.039098598 -0.0088992501
-0.092033364 -0.039116815 -0.0097536799
-0.092546359 -0.038849179 -0.01003652
-0.093300313 -0.039010435 -0.011172742
-0.093811892 -0.038743336 -0.011454535
-0.094243139 -0.038333546 -0.011452219
-0.094674394 -0.037923761 -0.011449901
-0.095105633 -0.037513975 -0.011447585
-0.095616363 -0.037247524 -0.011729171
-0.096126698 -0.03698127 -0.01201055
-0.096557632 -0.03657179 -0.012008236
-0.096434802 -0.035154257 -0.010015633
-0.096787661 -0.034599125 -0.0097281411
-0.097219869 -0.034188427 -0.0097258184
-0.097809747 -0.034067404 -0.010293632
-0.098241635 -0.033657007 -0.010291311
-0.098751955 -0.033391591 -0.010573743
-0.099183686 -0.032981351 -0.010571425
-0.099537298 -0.032425825 -0.010284351
-0.099813126 -0.031724233 -0.0097118886
-0.09993314 -0.030729242 -0.0085667381
-0.10036599 -0.030317932 -0.0085644135
-0.087010875 -0.044111934 -0.0088567678
-0.087443404 -0.043700926 -0.0088544441
-0.087958477 -0.043431398 -0.0091378279
-0.08839085 -0.043020546 -0.0091355061
-0.088823222 -0.042609695 -0.0091331825
-0.089337595 -0.042340662 -0.0094163576
-0.089769803 -0.041929968 -0.0094140368
-0.090365194 -0.041803204 -0.0099820793
-0.090634227 -0.041108567 -0.0094093932
-0.091066428 -0.040697869 -0.0094070714
-0.091336168 -0.040001895 -0.0088335332
-0.091930844 -0.039876472 -0.0094024278
-0.092443876 -0.039608553 -0.0096853981
-0.093197986 -0.039768688 -0.01082214
-0.093709603 -0.039501306 -0.011104062
-0.094220839 -0.039234124 -0.011385775
-0.094731696 -0.038967136 -0.011667281
-0.095083013 -0.038414851 -0.011381145
-0.095514104 -0.038005214 -0.011378829
-0.095945194 -0.037595578 -0.011376512
-0.096297093 -0.037042581 -0.011090162
-0.096649259 -0.036489174 -0.010803601
-0.096843526 -0.035647284 -0.0099472785
-0.097196415 -0.03509254 -0.0096598687
-0.097707309 -0.034826495 -0.0099426396
-0.098139197 -0.034416098 -0.0099403188
-0.098571084 -0.034005705 -0.0099379988
-0.099081278 -0.033740163 -0.010220562
-0.099513009 -0.033329919 -0.010218242
-0.099866755 -0.032774519 -0.0099310391
-0.10006482 -0.031927563 -0.0090727946
-0.10041929 -0.031370822 -0.0087847402
-0.086475752 -0.045283157 -0.0085075777
-0.086908281 -0.044872154 -0.008505255
-0.087340809 -0.04446115 -0.0085029313
-0.088103317 -0.044614274 -0.0096426876
-0.088535205 -0.044203877 -0.0096403677
-0.089049116 -0.043934554 -0.0099230399
-0.089317061 -0.043241758 -0.0093505234
-0.089830868 -0.042972695 -0.0096334079
-0.090099499 -0.042278923 -0.0090604629
-0.090613201 -0.042010117 -0.0093435599
-0.09104526 -0.041599572 -0.009341239
-0.091558427 -0.041331116 -0.0096241273
-0.091990307 -0.04092072 -0.0096218083
-0.092422202 -0.040510327 -0.0096194874
-0.09309566 -0.040526938 -0.010471538
-0.093607314 -0.040259276 -0.01075359
-0.09411858 -0.039991815 -0.011035433
-0.094709225 -0.039866813 -0.011600809
-0.095140003 -0.039457478 -0.011598495
-0.09557078 -0.039048146 -0.01159618
-0.09584295 -0.038353272 -0.01102617
-0.095877312 -0.037227169 -0.0096009271
-0.096309207 -0.036816772 -0.0095986072
-0.096741088 -0.036406379 -0.0095962873
-0.097172983 -0.035995983 -0.0095939673
-0.097525984 -0.035441373 -0.0093064262
-0.098036759 -0.035175193 -0.0095893275
-0.09839008 -0.034620278 -0.0093017844
-0.098900534 -0.034354407 -0.0095846877
-0.099410608 -0.034088735 -0.0098673813
-0.099842332 -0.033678491 -0.0098650614
-0.1000403 -0.03283285 -0.0090070628
-0.10039463 -0.032276653 -0.0087190904
-0.10074923 -0.031720039 -0.0084309047
-0.086539306 -0.046324171 -0.0087277843
-0.08763238 -0.047033712 -0.011003892
-0.087568983 -0.045783762 -0.0092940163
-0.08783593 -0.045092076 -0.0087208198
-0.088432759 -0.044962972 -0.0092893764
-0.08911065 -0.044974644 -0.010141793
-0.089623772 -0.044705339 -0.010423967
-0.089973465 -0.044154767 -0.010137158
-0.090241894 -0.043462642 -0.0095652221
-0.090347588 -0.042486168 -0.0084211277
-0.090779953 -0.042075317 -0.008418805
-0.091374822 -0.0419484 -0.0089877956
-0.091887869 -0.041679814 -0.0092708161
-0.092400543 -0.04141143 -0.0095536262
-0.092993334 -0.041285191 -0.010120936
-0.093505017 -0.041017249 -0.010403116
-0.094016336 -0.040749505 -0.01068509
-0.094607055 -0.040623944 -0.011250725
-0.095037825 -0.040214609 -0.011248411
-0.09562736 -0.040089536 -0.011813212
-0.095740698 -0.039110962 -0.010675827
-0.095774874 -0.037986264 -0.0092499349
-0.096206762 -0.037575871 -0.0092476159
-0.09663865 -0.037165474 -0.0092452951
-0.097070545 -0.036755081 -0.0092429752
-0.097502425 -0.036344685 -0.0092406562
-0.097855553 -0.035790198 -0.0089529827
-0.098287605 -0.035379656 -0.0089506628
-0.098719649 -0.034969106 -0.008948341
-0.099229984 -0.034703106 -0.0092313755
-0.099739932 -0.034437306 -0.0095142005
-0.10017166 -0.034027062 -0.0095118806
-0.10037 -0.033181809 -0.0086534889
-0.10072445 -0.032625739 -0.0083653852
-0.10107917 -0.032069255 -0.0080770683
-0.086353704 -0.046943769 -0.0080906488
-0.087612532 -0.047930408 -0.010937665
-0.088043302 -0.047521073 -0.01093535
-0.088309914 -0.046832461 -0.010364851
-0.088330321 -0.045722064 -0.0089383842
-0.088844307 -0.045452181 -0.0092213172
-0.089521483 -0.045463305 -0.010073493
-0.089952737 -0.045053519 -0.010071176
-0.090383984 -0.044643734 -0.01006886
-0.090733953 -0.044093139 -0.0097819194
-0.090758882 -0.042976841 -0.0083533144
-0.091109775 -0.042424403 -0.0080650998
-0.091704391 -0.042297229 -0.008634354
-0.092298143 -0.042170241 -0.0092027634
-0.092891008 -0.04204344 -0.0097703319
-0.093402736 -0.041775219 -0.010052644
-0.093914084 -0.041507196 -0.010334746
-0.094504885 -0.041381076 -0.010900641
-0.09517429 -0.041396681 -0.011749071
-0.09552525 -0.040846106 -0.011463387
-0.095955715 -0.040437076 -0.011461074
-0.095831454 -0.039031141 -0.009469266
-0.096263014 -0.038621049 -0.009466948
-0.096694589 -0.038210958 -0.009464629
-0.097283982 -0.038087137 -0.010031794
-0.097399987 -0.03710378 -0.008889664
-0.097831868 -0.036693387 -0.0088873431
-0.098185129 -0.03613903 -0.0085995402
-0.098695651 -0.035872597 -0.0088827042
-0.099127539 -0.035462201 -0.0088803833
-0.099637531 -0.035196118 -0.0091633378
-0.10006926 -0.034785874 -0.0091610188
-0.10050099 -0.034375634 -0.0091586998
-0.10069969 -0.033530764 -0.0082999142
-0.087510355 -0.04868754 -0.010587581
-0.088023312 -0.048417259 -0.010869173
-0.088289812 -0.047729563 -0.010298836
-0.088474587 -0.046901084 -0.009442904
-0.088741906 -0.046210997 -0.0088704545
-0.089337401 -0.046081208 -0.0094382698
-0.090176374 -0.046371348 -0.010857607
-0.090606995 -0.045962166 -0.010855294
-0.090712942 -0.044991918 -0.0097160712
-0.091063045 -0.04444145 -0.0094290003
-0.091251105 -0.043608397 -0.0085711516
-0.091682993 -0.043198001 -0.0085688327
-0.092114881 -0.042787608 -0.0085665118
-0.092788681 -0.042801697 -0.0094197299
-0.093300447 -0.042533193 -0.0097021712
-0.09381184 -0.04226489 -0.0099844038
-0.094322845 -0.041996781 -0.010266427
-0.095072225 -0.042152978 -0.011399374
-0.095740274 -0.042167712 -0.012246315
-0.096011966 -0.041476678 -0.011678046
-0.095887937 -0.040074468 -0.0096882712
-0.09616065 -0.039379582 -0.0091162156
-0.096592225 -0.038969491 -0.0091138976
-0.097181693 -0.038845103 -0.0096813217
-0.09769164 -0.038578164 -0.0099635618
-0.098044187 -0.038025532 -0.0096766893
-0.098161325 -0.037042085 -0.0085340319
-0.098593205 -0.036631692 -0.008531712
-0.099103391 -0.036365174 -0.0088147959
-0.099535123 -0.03595493 -0.0088124759
-0.10004478 -0.035688762 -0.0090953512
-0.10039859 -0.035134446 -0.008807837
-0.10083032 -0.034724202 -0.008805518
-0.087243222 -0.049167119 -0.0096687963
-0.08792118 -0.049174111 -0.010519219
-0.088269725 -0.048626002 -0.010232869
-0.08837226 -0.047659338 -0.0090923021
-0.088803664 -0.047249399 -0.0090899849
-0.089235075 -0.046839457 -0.0090876678
-0.089748152 -0.046569463 -0.009370232
-0.090586066 -0.046858594 -0.01078917
-0.091016516 -0.046449561 -0.010786858
-0.091446973 -0.046040531 -0.010784546
-0.091473162 -0.044930313 -0.0093609644
-0.091742598 -0.044239022 -0.0087886667
-0.092012443 -0.043546703 -0.0082155196
-0.092766903 -0.043700952 -0.0093540158
-0.093198158 -0.043291163 -0.0093516987
-0.093709581 -0.04302258 -0.0096340608
-0.094220623 -0.042754192 -0.0099162143
-0.094731301 -0.042486005 -0.010198158
-0.09540046 -0.042500388 -0.011047366
-0.09614715 -0.04265561 -0.012177492
-0.096023612 -0.041258004 -0.010191216
-0.096137628 -0.040280435 -0.0090505891
-0.096489862 -0.039728023 -0.0087631652
-0.096921422 -0.039317932 -0.0087608472
-0.097431853 -0.039050616 -0.0090436367
-0.098020487 -0.038926221 -0.0096109034
-0.098451577 -0.038516581 -0.0096085873
-0.098726079 -0.037820801 -0.0090366844
-0.09900099 -0.037123986 -0.0084639331
-0.099510841 -0.036857389 -0.0087469369
-0.099942409 -0.036447298 -0.0087446189
-0.10045172 -0.036181044 -0.009027414
-0.10080555 -0.035627112 -0.0087399827
-0.10115964 -0.035072774 -0.0084523372
-0.086975701 -0.049647406 -0.0087486524
-0.087983385 -0.050207641 -0.010736965
-0.088413678 -0.049798764 -0.010734652
-0.088434249 -0.0486959 -0.0093115065
-0.088701338 -0.048007652 -0.008739383
-0.089132749 -0.047597714 -0.0087370649
-0.08964587 -0.047327433 -0.0090197595
-0.090158604 -0.047057357 -0.0093022436
-0.090670966 -0.046787478 -0.0095845191
-0.091263942 -0.046657506 -0.010150758
-0.09177532 -0.046388075 -0.010432407
-0.092044495 -0.045699134 -0.0098619582
-0.092314057 -0.045009177 -0.0092906645
-0.092745148 -0.044599541 -0.0092883492
-0.093336806 -0.044471134 -0.0098550161
-0.093767576 -0.044061802 -0.0098527018
-0.094118416 -0.043511603 -0.0095659997
-0.09454935 -0.043102119 -0.0095636854
-0.095218956 -0.043115824 -0.010413909
-0.095728688 -0.042847801 -0.010695359
-0.095921442 -0.042015135 -0.009841132
-0.096193872 -0.041322455 -0.0092698233
-0.096624963 -0.040912818 -0.0092675071
-0.096898116 -0.040218808 -0.0086953519
-0.097329527 -0.039808869 -0.0086930338
-0.097760931 -0.039398931 -0.0086907167
-0.098270863 -0.039131686 -0.0089734271
-0.09870211 -0.038721897 -0.00897111
-0.099133365 -0.038312111 -0.0089687938
-0.099486575 -0.037759174 -0.0086814472
-0.099917985 -0.037349235 -0.0086791292
-0.10027161 -0.036795739 -0.0083915684
-0.1007808 -0.036529358 -0.0086744949
-0.10113475 -0.035975557 -0.0083869314
-0.10156632 -0.035565466 -0.0083846143
-0.10192069 -0.035011102 -0.0080968374
-0.087716907 -0.050687812 -0.0098193083
-0.088393576 -0.050693117 -0.010668622
-0.088741913 -0.050146174 -0.010382645
-0.088763088 -0.049043957 -0.0089588473
-0.089112327 -0.048495192 -0.0086716032
-0.089543581 -0.048085406 -0.008669287
-0.089974828 -0.047675617 -0.0086669689
-0.09048745 -0.047405414 -0.0089495853
-0.09083733 -0.046856046 -0.0086623365
-0.091430619 -0.046725921 -0.0092296749
-0.092103675 -0.046735615 -0.01008027
-0.092534132 -0.046326585 -0.010077957
-0.092964582 -0.045917552 -0.010075646
-0.093314864 -0.045368448 -0.0097892368
-0.093745477 -0.044959262 -0.0097869243
-0.094176091 -0.044550084 -0.0097846109
-0.094606705 -0.044140901 -0.0097822985
-0.095037319 -0.043731719 -0.0097799841
-0.095547311 -0.043463368 -0.010061772
-0.09566053 -0.042489782 -0.0089217955
-0.096091621 -0.042080145 -0.0089194803
-0.096522711 -0.041670509 -0.008917165
-0.096953802 -0.041260876 -0.0089148488
-0.097384892 -0.040851239 -0.0089125326
-0.097737327 -0.040299445 -0.0086252708
-0.098090023 -0.039747242 -0.0083377976
-0.098521434 -0.039337303 -0.0083354795
-0.098952837 -0.038927365 -0.0083331624
-0.099462323 -0.038660295 -0.0086160051
-0.09989357 -0.038250506 -0.0086136889
-0.10032482 -0.03784072 -0.0086113717
-0.10075607 -0.037430931 -0.0086090546
-0.10110988 -0.036877669 -0.008321574
-0.10154129 -0.036467731 -0.0083192568
-0.1019727 -0.036057793 -0.0083169397
-0.10232709 -0.035503816 -0.0080292448
-0.08720246 -0.05075397 -0.0080451304
-0.088209555 -0.051311348 -0.01003526
-0.088639848 -0.050902471 -0.010032948
-0.088906601 -0.050217118 -0.0094624134
-0.089255512 -0.0496694 -0.0091756731
-0.089523017 -0.048982374 -0.0086038737
-0.089954101 -0.048572738 -0.0086015575
-0.090385191 -0.048163105 -0.0085992413
-0.090816282 -0.047753468 -0.008596926
-0.091166288 -0.047204226 -0.0083095478
-0.091597542 -0.046794441 -0.0083072307
-0.092028789 -0.046384655 -0.0083049145
-0.092942797 -0.046813667 -0.010009834
-0.09337309 -0.04640479 -0.010007523
-0.093803391 -0.045995906 -0.010005211
-0.094153844 -0.045447033 -0.0097188829
-0.094663978 -0.045178145 -0.010000587
-0.095014758 -0.04462897 -0.0097142579
-0.095365793 -0.044079389 -0.009427716
-0.095558278 -0.043247476 -0.0085714534
-0.095910035 -0.042696569 -0.0082840649
-0.096420459 -0.042428199 -0.008566821
-0.09685155 -0.042018566 -0.0085645057
-0.097361438 -0.04175055 -0.0088470532
-0.097870946 -0.041482732 -0.0091293938
-0.098380081 -0.041215114 -0.009411525
-0.098497532 -0.040237844 -0.0082701659
-0.098928787 -0.039828051 -0.0082678488
-0.10022254 -0.03859869 -0.0082608983
-0.10073136 -0.03833184 -0.0085436637
-0.10123982 -0.038065188 -0.0088262204
-0.10167075 -0.037655704 -0.0088239051
-0.10210168 -0.03724622 -0.0088215908
-0.10237879 -0.036549754 -0.0082493164
-0.10288682 -0.036283661 -0.0085320855
-0.087861024 -0.051654529 -0.008832532
-0.08853779 -0.051658764 -0.0096832514
-0.088886298 -0.051111978 -0.0093968045
-0.089235075 -0.050564788 -0.0091101462
-0.089584105 -0.050017197 -0.0088232756
-0.090014875 -0.049607866 -0.0088209622
-0.09036433 -0.049059715 -0.0085338783
-0.090714037 -0.048511159 -0.0082465829
-0.091145128 -0.048101526 -0.0082442677
-0.093431234 -0.047439601 -0.010225485
-0.093861215 -0.047031023 -0.010223175
-0.094131619 -0.046343323 -0.0096532032
-0.094561912 -0.045934442 -0.0096508916
-0.09523052 -0.045944996 -0.010499765
-0.09550184 -0.045256749 -0.0099302074
-0.095694266 -0.04442706 -0.0090754488
-0.095887117 -0.043595526 -0.0082187941
-0.097611479 -0.041956987 -0.0082095312
-0.098277941 -0.041971967 -0.0090615693
-0.098864861 -0.041845642 -0.0096277772
-0.099061087 -0.041011862 -0.0087723676
-0.10156853 -0.038413115 -0.0084736915
-0.10199947 -0.038003631 -0.0084713763
-0.10250726 -0.037737198 -0.0087538548
-0.10293803 -0.037327867 -0.0087515414
-0.10321565 -0.036631718 -0.0081794262
-0.087758839 -0.052411661 -0.0084824478
-0.088353753 -0.05227758 -0.0090492917
-0.088784203 -0.05186855 -0.0090469792
-0.089214653 -0.051459517 -0.0090446658
-0.089481935 -0.050774325 -0.0084731914
-0.089912705 -0.050364994 -0.008470878
-0.090343475 -0.049955662 -0.0084685627
-0.090693049 -0.049407642 -0.0081813494
-0.093759224 -0.047786757 -0.0098737366
-0.094189204 -0.047378179 -0.009871427
-0.094619177 -0.0469696 -0.0098691164
-0.095128573 -0.046700452 -0.010150456
-0.09555839 -0.046292022 -0.010148146
