# .PCD v0.7 - Point Cloud Data file format
VERSION 0.7
FIELDS x y z
SIZE 4 4 4
TYPE F F F
COUNT 1 1 1
WIDTH 1252
HEIGHT 1
VIEWPOINT 0 0 0 1 0 0 0
POINTS 1252
DATA ascii
-0.11162223 -0.028248783 -0.027062325
-0.11213054 -0.028478557 -0.027029116
-0.11274437 -0.02857985 -0.026742853
-0.11335862 -0.028681209 -0.02645639
-0.11376134 -0.029039558 -0.026676415
-0.11426983 -0.029269412 -0.026643196
-0.11477831 -0.029499268 -0.026609976
-0.1152868 -0.02972912 -0.026576757
-0.11579528 -0.029958975 -0.026543539
-0.11630377 -0.030188829 -0.026510321
-0.11681226 -0.030418685 -0.0264771
-0.11710662 -0.030903984 -0.026950028
-0.11772195 -0.031006081 -0.026663836
-0.11823026 -0.031235855 -0.026630627
-0.11873857 -0.031465631 -0.02659742
-0.11924688 -0.031695407 -0.026564213
-0.11975519 -0.031925179 -0.026531005
-0.1202635 -0.032154955 -0.026497796
-0.12077181 -0.032384731 -0.026464591
-0.12095504 -0.032995366 -0.027190087
-0.12135442 -0.0333516 -0.027409479
-0.12175354 -0.033707589 -0.027628718
-0.12226097 -0.033936966 -0.027595568
-0.12298616 -0.033913508 -0.027057396
-0.12349394 -0.034143046 -0.027024223
-0.12400173 -0.034372583 -0.026991051
-0.12450951 -0.034602121 -0.026957879
-0.12501729 -0.034831654 -0.026924705
-0.12563494 -0.034935039 -0.026638702
-0.12625302 -0.035038497 -0.026352501
-0.12676117 -0.035268191 -0.026319306
-0.12715882 -0.035623886 -0.026539149
-0.12733528 -0.036230739 -0.027264066
-0.12762174 -0.036711015 -0.02773547
-0.12812881 -0.036940232 -0.027702341
-0.1286359 -0.037169453 -0.027669214
-0.12925395 -0.037273504 -0.027383866
-0.13009511 -0.037127018 -0.026592975
-0.1306029 -0.037356552 -0.026559804
-0.13122249 -0.037460811 -0.026273673
-0.13161846 -0.037815623 -0.026493458
-0.13212624 -0.03804516 -0.026460283
-0.13252176 -0.038399648 -0.026679927
-0.13302937 -0.038629103 -0.026646765
-0.13342446 -0.038983271 -0.026866268
-0.13393189 -0.039212648 -0.026833119
-0.1343265 -0.039566483 -0.027052481
-0.13483377 -0.039795779 -0.027019341
-0.13545418 -0.039900776 -0.026733667
-0.13596161 -0.040130153 -0.026700517
-0.13658263 -0.040235303 -0.026414635
-0.13709022 -0.040464759 -0.026381474
-0.13759784 -0.040694214 -0.026348311
-0.13810544 -0.04092367 -0.026315151
-0.13861305 -0.041153129 -0.02628199
-0.13912065 -0.041382588 -0.026248829
-0.13928458 -0.041983042 -0.026973547
-0.13979165 -0.042212266 -0.02694042
-0.14018399 -0.04256482 -0.027159594
-0.14057605 -0.042917132 -0.027378615
-0.14108278 -0.043146193 -0.02734551
-0.1414744 -0.043498185 -0.027564391
-0.1417506 -0.043972615 -0.028034773
-0.14225681 -0.044201434 -0.028001703
-0.14287849 -0.044307735 -0.027716961
-0.14350061 -0.044414107 -0.027432023
-0.14412315 -0.044520557 -0.027146885
-0.14521194 -0.044136066 -0.02585089
-0.14583637 -0.044242639 -0.025564615
-0.14634414 -0.044472177 -0.025531443
-0.14685193 -0.04470171 -0.025498267
-0.14747714 -0.044808514 -0.02521177
-0.1479851 -0.04503813 -0.025178587
-0.14837527 -0.045390319 -0.02539875
-0.14876518 -0.045742262 -0.025618762
-0.14927278 -0.045971721 -0.025585599
-0.15013532 -0.045834176 -0.024792293
-0.15064347 -0.04606387 -0.024759097
-0.1511516 -0.046293564 -0.024725901
-0.1515408 -0.04664544 -0.024946297
-0.15192975 -0.04699707 -0.025166539
-0.15255673 -0.047104672 -0.024879929
-0.15306468 -0.047334287 -0.024846742
-0.15321426 -0.047928981 -0.025573419
-0.15360221 -0.048279807 -0.025793217
-0.15387042 -0.048751585 -0.026265472
-0.15425774 -0.049101762 -0.026484802
-0.15452524 -0.049572486 -0.026956091
-0.15479234 -0.050042562 -0.027426729
-0.15553799 -0.050030291 -0.02688993
-0.15712836 -0.049171213 -0.024581268
-0.1576363 -0.049400829 -0.024548084
-0.15826547 -0.049509298 -0.024261158
-0.15901664 -0.049496606 -0.023719929
-0.16013506 -0.049119424 -0.022413483
-0.16101193 -0.04898468 -0.021614108
-0.1617676 -0.048971582 -0.021069156
-0.16227786 -0.049202237 -0.021035822
-0.1629115 -0.049311128 -0.020746376
-0.16329838 -0.049663544 -0.020969152
-0.16393235 -0.049772594 -0.020679684
-0.16506363 -0.049394444 -0.019362926
-0.16569957 -0.049503632 -0.019072292
-0.16633594 -0.049612891 -0.018781453
-0.16684762 -0.04984419 -0.018748026
-0.16735929 -0.05007549 -0.018714599
-0.16762026 -0.050550129 -0.019195905
-0.16800617 -0.050902728 -0.019419611
-0.16851731 -0.051133785 -0.019386219
-0.16865167 -0.051728241 -0.02012315
-0.16916229 -0.051959053 -0.020089792
-0.17068224 -0.051220402 -0.017998464
-0.17221069 -0.050477613 -0.015895421
-0.17387609 -0.049607877 -0.013519577
-0.17685057 -0.047493149 -0.0084918952
-0.054264892 0.011806214 -0.010006398
-0.054700017 0.011423343 -0.010238483
-0.055134829 0.011040744 -0.010470401
-0.05504195 0.0097841043 -0.012293563
-0.054949537 0.0085337022 -0.014107674
-0.055469558 0.0082986318 -0.014073702
-0.055726379 0.0076307096 -0.014829069
-0.055632599 0.0063900505 -0.016630501
-0.055191197 0.0045861267 -0.019462658
-0.055012699 0.0032194729 -0.021499503
-0.055180833 0.0024228438 -0.022496853
-0.055521548 0.0019092719 -0.0229777
-0.055948462 0.0015367018 -0.023201101
-0.05628828 0.0010242889 -0.023680953
-0.056714483 0.00065241917 -0.023903871
-0.056966498 1.6111288e-06 -0.024638645
-0.057391863 -0.00036938197 -0.024860919
-0.057642821 -0.0010182123 -0.025593663
-0.057893254 -0.001665686 -0.026324876
-0.058404401 -0.0018967421 -0.026291482
-0.058915544 -0.002127798 -0.026258091
-0.059426688 -0.002358854 -0.026224697
-0.059937831 -0.0025899103 -0.026191305
-0.060448978 -0.0028209663 -0.026157914
-0.060960121 -0.0030520225 -0.02612452
-0.061471269 -0.0032830783 -0.026091127
-0.061894026 -0.0036520225 -0.026312353
-0.062316488 -0.0040207095 -0.026533425
-0.062738657 -0.0043891398 -0.026754342
-0.063160539 -0.0047573135 -0.026975105
-0.06367097 -0.0049880482 -0.02694176
-0.064181402 -0.0052187825 -0.026908413
-0.064691834 -0.0054495167 -0.026875068
-0.065291718 -0.0055432133 -0.026587553
-0.065802321 -0.0057740281 -0.026554195
-0.066223137 -0.0061417203 -0.026775029
-0.066733569 -0.0063724546 -0.026741682
-0.067063883 -0.0068763364 -0.027216233
-0.067573957 -0.0071069109 -0.027182911
-0.068084039 -0.007337485 -0.027149588
-0.068594106 -0.0075680586 -0.027116265
-0.069194928 -0.0076624271 -0.026829034
-0.069887213 -0.0076205465 -0.026287332
-0.070397817 -0.0078513604 -0.026253974
-0.070817031 -0.0082183294 -0.026474912
-0.07132747 -0.0084490646 -0.026441567
-0.071837895 -0.0086797988 -0.02640822
-0.072348334 -0.008910533 -0.026374875
-0.072766714 -0.0092770066 -0.026595693
-0.073184818 -0.0096432241 -0.026816359
-0.073694892 -0.0098737972 -0.026783036
-0.074390069 -0.00983347 -0.026241491
-0.0749005 -0.010064205 -0.026208146
-0.075410932 -0.01029494 -0.026174799
-0.075921364 -0.010525674 -0.026141454
-0.076525152 -0.010621138 -0.025853684
-0.076942228 -0.010987142 -0.02607476
-0.077359013 -0.011352893 -0.026295682
-0.077869281 -0.011583548 -0.026262349
-0.078285597 -0.011948964 -0.02648313
-0.07870163 -0.012314125 -0.026703758
-0.079211526 -0.012544619 -0.026670447
-0.079721428 -0.012775112 -0.026637135
-0.080231331 -0.013005606 -0.026603824
-0.080646537 -0.013370274 -0.026824333
-0.081156269 -0.013600687 -0.026791032
-0.081665985 -0.0138311 -0.026757732
-0.082175709 -0.014061515 -0.026724434
-0.082685433 -0.014291928 -0.026691133
-0.083195157 -0.014522342 -0.026657833
-0.083704881 -0.014752755 -0.026624534
-0.084214605 -0.01498317 -0.026591234
-0.084628291 -0.015347023 -0.026811671
-0.085137829 -0.015577356 -0.026778383
-0.085647374 -0.01580769 -0.026745094
-0.086060427 -0.016171131 -0.0269654
-0.086473174 -0.016534321 -0.027185554
-0.086982369 -0.016764494 -0.027152291
-0.087588534 -0.016861893 -0.026865572
-0.088195115 -0.016959358 -0.026578654
-0.088704661 -0.017189691 -0.026545366
-0.089214206 -0.017420026 -0.026512077
-0.089723758 -0.017650358 -0.026478788
-0.090233296 -0.017880693 -0.026445501
-0.090742841 -0.018111026 -0.026412213
-0.091252387 -0.018341361 -0.026378926
-0.091860458 -0.018439373 -0.026091738
-0.092468947 -0.018537456 -0.025804352
-0.093077861 -0.018635606 -0.025516765
-0.093587935 -0.01886618 -0.025483442
-0.093998648 -0.019228937 -0.025704417
-0.094409071 -0.019591441 -0.02592524
-0.094719701 -0.020085443 -0.026399698
-0.095129445 -0.020447273 -0.026620049
-0.095538914 -0.020808851 -0.026840245
-0.095848329 -0.021301322 -0.027313413
-0.096356988 -0.021531256 -0.027280182
-0.0967656 -0.021892082 -0.027499922
-0.097274087 -0.022121936 -0.027466703
-0.097782575 -0.022351792 -0.027433485
-0.098291062 -0.022581646 -0.027400265
-0.098799542 -0.0228115 -0.027367046
-0.099308036 -0.023041354 -0.027333828
-0.099917635 -0.023140796 -0.027047569
-0.10052765 -0.023240305 -0.026761113
-0.10103648 -0.023470318 -0.02672787
-0.10144362 -0.023830598 -0.026947878
-0.10185047 -0.024190629 -0.027167732
-0.10235895 -0.024420483 -0.027134513
-0.10286744 -0.024650337 -0.027101295
-0.10337593 -0.024880191 -0.027068075
-0.10388441 -0.025110044 -0.027034856
-0.1043929 -0.0253399 -0.027001638
-0.10490139 -0.025569754 -0.02696842
-0.10540988 -0.025799608 -0.026935199
-0.10591836 -0.026029462 -0.026901981
-0.10642685 -0.026259318 -0.026868762
-0.10693533 -0.026489172 -0.026835542
-0.10744382 -0.026719026 -0.026802324
-0.10795231 -0.02694888 -0.026769105
-0.10835676 -0.027307704 -0.026988946
-0.10886507 -0.02753748 -0.026955739
-0.10947777 -0.027638445 -0.026669448
-0.10988169 -0.02799703 -0.026889324
-0.11039 -0.028226804 -0.026856115
-0.11089831 -0.02845658 -0.026822908
-0.11140662 -0.028686354 -0.026789701
-0.11180974 -0.029044453 -0.027009459
-0.11242324 -0.029145904 -0.026723286
-0.11303717 -0.029247425 -0.026436916
-0.11354566 -0.02947728 -0.026403697
-0.11405414 -0.029707134 -0.026370477
-0.11456263 -0.029936988 -0.026337259
-0.11507111 -0.030166844 -0.02630404
-0.11557961 -0.030396698 -0.02627082
-0.11598141 -0.030754328 -0.026490835
-0.11648972 -0.030984102 -0.026457626
-0.11689108 -0.031341404 -0.0266775
-0.11739921 -0.031571101 -0.026644303
-0.11790734 -0.031800795 -0.026611106
-0.11841548 -0.032030489 -0.026577912
-0.11892361 -0.032260187 -0.026544716
-0.11932398 -0.032616921 -0.02676448
-0.11983195 -0.03284654 -0.026731297
-0.12023187 -0.033202946 -0.026950922
-0.12063151 -0.03355911 -0.027170395
-0.12113912 -0.033788566 -0.027137233
-0.12164672 -0.034018025 -0.027104072
-0.12204573 -0.034373779 -0.027323416
-0.12266193 -0.034476936 -0.027037749
-0.12316954 -0.034706395 -0.027004587
-0.12367715 -0.034935847 -0.026971426
-0.12418475 -0.035165306 -0.026938265
-0.12469236 -0.035394765 -0.026905105
-0.12530969 -0.035498306 -0.026619192
-0.12592745 -0.035601925 -0.026333084
-0.1264354 -0.035831541 -0.026299899
-0.12694336 -0.036061157 -0.026266715
-0.12700978 -0.036792971 -0.027244361
-0.12751703 -0.03702227 -0.027211223
-0.12791373 -0.037376743 -0.02743038
-0.12853155 -0.037480868 -0.027144946
-0.12903878 -0.037710167 -0.02711181
-0.1299911 -0.037438851 -0.026067607
-0.1306107 -0.037543174 -0.025781211
-0.13111883 -0.037772868 -0.025748013
-0.13140307 -0.038252741 -0.026221117
-0.13191086 -0.038482279 -0.026187945
-0.13230646 -0.038836613 -0.026407683
-0.13270178 -0.039190706 -0.026627267
-0.13309683 -0.039544553 -0.026846701
-0.13337921 -0.040022369 -0.027318228
-0.13388613 -0.040251508 -0.02728511
-0.13439304 -0.040480647 -0.027251994
-0.13501287 -0.040585808 -0.0269666
-0.13551994 -0.040815026 -0.026933474
-0.13602702 -0.041044243 -0.026900347
-0.13642065 -0.041397206 -0.027119534
-0.13692755 -0.041626342 -0.027086418
-0.13743447 -0.041855484 -0.027053302
-0.13839774 -0.041590095 -0.026009744
-0.13856243 -0.042190339 -0.026734712
-0.1390695 -0.042419557 -0.026701584
-0.13934766 -0.04289522 -0.027173048
-0.13985439 -0.043124285 -0.027139945
-0.14036112 -0.043353345 -0.02710684
-0.14075297 -0.043705262 -0.027325803
-0.14102969 -0.044179551 -0.027796349
-0.14130601 -0.044653185 -0.028266245
-0.14192694 -0.044759564 -0.02798179
-0.14266372 -0.044743646 -0.027445374
-0.14328575 -0.044850171 -0.027160341
-0.14390822 -0.04495677 -0.02687511
-0.14476372 -0.044818405 -0.026084514
-0.14550422 -0.044802491 -0.025545485
-0.14601184 -0.045031942 -0.025512321
-0.14640242 -0.045383893 -0.025732217
-0.14690985 -0.04561327 -0.025699068
-0.14765212 -0.0455979 -0.025159584
-0.14804226 -0.045949772 -0.025379676
-0.14854987 -0.046179231 -0.025346516
-0.14905748 -0.046408683 -0.025313355
-0.14956509 -0.046638142 -0.025280191
-0.15019102 -0.04674558 -0.02499372
-0.15069881 -0.046975117 -0.024960546
-0.15108791 -0.047326513 -0.025180709
-0.1515955 -0.047555968 -0.025147546
-0.15222216 -0.047663722 -0.024861027
-0.15284923 -0.047771554 -0.02457431
-0.15299903 -0.048365798 -0.025301268
-0.15314852 -0.048958808 -0.026026718
-0.15341684 -0.049429793 -0.026498485
-0.15380406 -0.049779497 -0.026717585
-0.15407167 -0.050249424 -0.027188387
-0.1545777 -0.050478168 -0.027155329
-0.15508373 -0.050706912 -0.02712227
-0.15618995 -0.050333645 -0.025828024
-0.15717918 -0.050079994 -0.024782769
-0.15804994 -0.049946718 -0.023988631
-0.15880094 -0.049934331 -0.023447212
-0.15991899 -0.049557902 -0.022140291
-0.1605507 -0.049666729 -0.021851731
-0.16155118 -0.049410827 -0.020795491
-0.16206144 -0.049641479 -0.020762155
-0.16244847 -0.04999366 -0.020984851
-0.16271202 -0.050466873 -0.021463072
-0.16346863 -0.050454807 -0.020918204
-0.16459832 -0.050078109 -0.019602779
-0.16535808 -0.050065745 -0.019055285
-0.16599411 -0.050175168 -0.018764542
-0.1665056 -0.050406385 -0.018731127
-0.16676706 -0.050880626 -0.019212253
-0.16727822 -0.051111683 -0.019178862
-0.16778935 -0.051342741 -0.019145468
-0.16804972 -0.051815998 -0.019625973
-0.16843508 -0.052167788 -0.019849295
-0.16882019 -0.052519336 -0.02007246
-0.17046504 -0.051661178 -0.017723843
-0.17186561 -0.051041551 -0.015879458
-0.17301713 -0.050663501 -0.014546902
-0.17391588 -0.050529111 -0.013731672
-0.17572016 -0.049534258 -0.011080538
-0.054306243 0.011795782 -0.0089257434
-0.054566048 0.011119593 -0.0096917339
-0.054913152 0.010590857 -0.010190104
-0.054820824 0.0093353344 -0.012013963
-0.054728959 0.0080860462 -0.013828769
-0.055073973 0.0075624567 -0.014321382
-0.055593632 0.0073275529 -0.014287434
-0.056113288 0.0070926491 -0.014253486
-0.055843521 0.005566692 -0.016580291
-0.055054184 0.0032001552 -0.020448046
-0.054876383 0.0018397799 -0.022478562
-0.055303674 0.0014671036 -0.022702215
-0.055730663 0.0010946883 -0.02292571
-0.056157358 0.00072253356 -0.023149051
-0.056496911 0.00021086932 -0.023628771
-0.05683599 -0.0003000797 -0.024107821
-0.057087708 -0.00094943569 -0.024841866
-0.057338893 -0.001597433 -0.025574375
-0.057676446 -0.0021056968 -0.026050732
-0.058100525 -0.0024750512 -0.026271973
-0.058524311 -0.0028441481 -0.026493058
-0.0590351 -0.0030750432 -0.026459688
-0.059545886 -0.0033059386 -0.026426319
-0.060144391 -0.0033989535 -0.026138449
-0.060655359 -0.0036299292 -0.026105067
-0.061166324 -0.0038609044 -0.026071686
-0.061589044 -0.0042295191 -0.026292842
-0.062011465 -0.0045978767 -0.026513841
-0.062433593 -0.0049659777 -0.026734689
-0.062944025 -0.005196712 -0.026701344
-0.06336569 -0.0055644768 -0.026922049
-0.063787051 -0.005931986 -0.027142601
-0.064386196 -0.0060257856 -0.026855379
-0.064896457 -0.0062564393 -0.026822044
-0.06540671 -0.0064870934 -0.026788712
-0.065916963 -0.0067177475 -0.026755378
-0.066337444 -0.0070848553 -0.026975986
-0.066847518 -0.0073154299 -0.026942663
-0.067267522 -0.0076822024 -0.027163131
-0.067777425 -0.0079126963 -0.02712982
-0.068106666 -0.0084149828 -0.027603608
-0.068706691 -0.0085095474 -0.027316846
-0.069488756 -0.008332327 -0.026522035
-0.070090085 -0.0084269941 -0.026234498
-0.070418067 -0.0089294473 -0.026709402
-0.070836827 -0.0092956582 -0.02692995
-0.071438223 -0.0093905944 -0.026642757
-0.071948305 -0.0096211694 -0.026609434
-0.072458379 -0.0098517425 -0.026576111
-0.072876431 -0.010217633 -0.026796708
-0.073386334 -0.010448128 -0.026763394
-0.073988609 -0.010543465 -0.026476143
-0.074498691 -0.010774039 -0.02644282
-0.075101562 -0.010869522 -0.026155356
-0.075611815 -0.011100176 -0.026122021
-0.07621529 -0.011195807 -0.025834344
-0.076632328 -0.011561484 -0.026055351
-0.077142589 -0.011792139 -0.026022017
-0.077559158 -0.012157482 -0.026242882
-0.077881716 -0.012656993 -0.02671745
-0.07839144 -0.012887406 -0.02668415
-0.078901164 -0.01311782 -0.02665085
-0.079410888 -0.013348234 -0.026617551
-0.079826236 -0.013712656 -0.026837979
-0.080335788 -0.01394299 -0.026804691
-0.080845326 -0.014173322 -0.026771402
-0.081354871 -0.014403657 -0.026738115
-0.081864424 -0.01463399 -0.026704825
-0.082373969 -0.014864324 -0.026671538
-0.082883514 -0.015094656 -0.026638251
-0.08339306 -0.015324991 -0.026604962
-0.083902612 -0.015555325 -0.026571674
-0.084316254 -0.015918853 -0.02679204
-0.084729612 -0.01628213 -0.027012255
-0.085142694 -0.016645152 -0.027232315
-0.085459314 -0.017140513 -0.027705209
-0.08596798 -0.017370448 -0.02767198
-0.086573154 -0.017467955 -0.02738574
-0.087178752 -0.01756553 -0.027099302
-0.087881841 -0.017530628 -0.026559105
-0.088488527 -0.017628327 -0.026272079
-0.088998072 -0.01785866 -0.026238792
-0.089605354 -0.017956506 -0.025951557
-0.09001717 -0.018319327 -0.026172215
-0.090526707 -0.018549662 -0.026138928
-0.091036253 -0.018779995 -0.026105639
-0.09164425 -0.018878162 -0.025818357
-0.092153974 -0.019108577 -0.025785057
-0.092762567 -0.019206891 -0.025497565
-0.09327247 -0.019437384 -0.025464252
-0.093683146 -0.019799815 -0.025685158
-0.094093539 -0.020161998 -0.025905911
-0.094404273 -0.020655429 -0.026380219
-0.094813988 -0.021016935 -0.026600499
-0.095123909 -0.021509262 -0.027073832
-0.095632568 -0.021739196 -0.027040603
-0.096041434 -0.022099951 -0.027260425
-0.096450016 -0.022460455 -0.027480094
-0.096958324 -0.022690231 -0.027446887
-0.09746664 -0.022920005 -0.027413679
-0.097974949 -0.023149781 -0.027380472
-0.098583862 -0.023249224 -0.027094331
-0.099092357 -0.023479078 -0.02706111
-0.099600837 -0.023708932 -0.027027892
-0.10010932 -0.023938788 -0.026994674
-0.1007192 -0.024038538 -0.026708296
-0.10102481 -0.024528429 -0.027181227
-0.10153312 -0.024758203 -0.02714802
-0.10204143 -0.024987979 -0.027114812
-0.10254974 -0.025217755 -0.027081603
-0.10305805 -0.025447529 -0.027048398
-0.10356636 -0.025677303 -0.027015191
-0.10417721 -0.025777623 -0.026728921
-0.10468571 -0.026007477 -0.026695702
-0.10519419 -0.026237331 -0.026662484
-0.10570268 -0.026467185 -0.026629265
-0.10621116 -0.026697041 -0.026596045
-0.10671965 -0.026926896 -0.026562827
-0.10722814 -0.02715675 -0.026529608
-0.10763285 -0.027515501 -0.026749531
-0.10814115 -0.027745275 -0.026716324
-0.10864946 -0.027975053 -0.026683114
-0.10915777 -0.028204827 -0.026649907
-0.10956167 -0.028563092 -0.026869712
-0.1100698 -0.028792785 -0.026836518
-0.11057793 -0.029022481 -0.026803322
-0.1109812 -0.029380338 -0.027022999
-0.11148915 -0.029609954 -0.026989812
-0.11199711 -0.02983957 -0.026956629
-0.11261047 -0.029941261 -0.026670538
-0.11322425 -0.030043025 -0.026384249
-0.11383846 -0.030144857 -0.026097761
-0.11424088 -0.030502575 -0.026317835
-0.11485543 -0.030604567 -0.026031323
-0.11525749 -0.030962124 -0.026251419
-0.11565927 -0.031319432 -0.026471363
-0.11616741 -0.031549126 -0.026438167
-0.11667555 -0.031778824 -0.026404969
-0.11718368 -0.032008518 -0.026371775
-0.11769181 -0.032238211 -0.026338579
-0.11798535 -0.032721922 -0.026811274
-0.11838577 -0.033078246 -0.027030796
-0.11889338 -0.033307705 -0.026997635
-0.11940099 -0.033537164 -0.026964473
-0.11990859 -0.033766616 -0.02693131
-0.12030821 -0.034122463 -0.027150715
-0.12081563 -0.034351841 -0.027117565
-0.12143141 -0.034454986 -0.026831828
-0.12193902 -0.034684446 -0.026798666
-0.12255539 -0.034787744 -0.026512718
-0.12295423 -0.035143357 -0.026732342
-0.12346184 -0.035372816 -0.02669918
-0.12396944 -0.035602272 -0.026666019
-0.12447705 -0.035831731 -0.026632858
-0.12509429 -0.035935424 -0.026346853
-0.12560208 -0.036164958 -0.026313681
-0.12610987 -0.036394496 -0.026280507
-0.12628736 -0.037000339 -0.027005443
-0.12679461 -0.037229639 -0.026972305
-0.12730187 -0.037458934 -0.026939167
-0.12758826 -0.037938192 -0.02741063
-0.12831637 -0.037917528 -0.026872888
-0.12893452 -0.038021877 -0.026587166
-0.12966433 -0.03800125 -0.026048295
-0.13039517 -0.037980594 -0.025508679
-0.1309033 -0.038210288 -0.025475485
-0.13118768 -0.038689859 -0.025948778
-0.13158354 -0.039044119 -0.026168598
-0.13209113 -0.039273579 -0.026135437
-0.13237442 -0.039751913 -0.02660778
-0.1326573 -0.040229592 -0.027079474
-0.1331642 -0.040458728 -0.027046358
-0.1336711 -0.04068787 -0.027013242
-0.13417801 -0.040917009 -0.026980128
-0.13468492 -0.041146148 -0.026947012
-0.13530485 -0.041251536 -0.02666151
-0.13569874 -0.041604426 -0.026880778
-0.13609235 -0.041957073 -0.027099898
-0.13659908 -0.04218613 -0.027066793
-0.13710581 -0.04241519 -0.02703369
-0.13761254 -0.042644251 -0.027000586
-0.13811927 -0.042873316 -0.026967481
-0.13862599 -0.043102376 -0.026934378
-0.13913272 -0.043331433 -0.026901273
-0.13952501 -0.043683361 -0.027120307
-0.14003156 -0.043912344 -0.027087215
-0.1404234 -0.044263948 -0.02730611
-0.14070024 -0.044737682 -0.027776508
-0.14120626 -0.044966426 -0.027743449
-0.14171229 -0.04519517 -0.027710389
-0.14256433 -0.045057248 -0.026921753
-0.14318655 -0.045163918 -0.02663644
-0.1438092 -0.045270659 -0.026350928
-0.14454855 -0.045255065 -0.025812456
-0.1450558 -0.045484364 -0.025779318
-0.14556307 -0.045713667 -0.02574618
-0.1457202 -0.046309218 -0.026470918
-0.14622693 -0.046538278 -0.026437815
-0.14685063 -0.046645496 -0.026152236
-0.14759208 -0.046630856 -0.025613626
-0.14809933 -0.046860155 -0.025580488
-0.1486066 -0.04708945 -0.025547348
-0.14911385 -0.047318749 -0.02551421
-0.14962111 -0.047548044 -0.025481071
-0.150365 -0.047534019 -0.024941623
-0.15087259 -0.047763478 -0.024908463
-0.1513802 -0.047992934 -0.024875302
-0.15200676 -0.04810084 -0.024588687
-0.15251455 -0.048330374 -0.024555515
-0.15242659 -0.049166031 -0.025787964
-0.15257651 -0.0497576 -0.026512159
-0.15296388 -0.050107062 -0.026731178
-0.1534701 -0.050335888 -0.026698109
-0.15385702 -0.050685033 -0.026916986
-0.15400521 -0.051274009 -0.027638767
-0.15451072 -0.051502518 -0.027605744
-0.15525541 -0.051491268 -0.027069621
-0.15648183 -0.050999146 -0.02552304
-0.15771335 -0.050504979 -0.023970032
-0.15895 -0.050008755 -0.022410555
-0.15970294 -0.049996387 -0.0218671
-0.16033457 -0.050105367 -0.021578446
-0.16084412 -0.050335698 -0.021545159
-0.16135366 -0.050566033 -0.02151187
-0.16186321 -0.050796367 -0.021478582
-0.16237275 -0.051026698 -0.021445293
-0.16300555 -0.051136073 -0.021156393
-0.16413362 -0.050760821 -0.019842299
-0.16489254 -0.050748944 -0.019295352
-0.16552797 -0.050858524 -0.019004896
-0.16603911 -0.051089581 -0.018971503
-0.16655025 -0.051320639 -0.018938111
-0.1669364 -0.051672846 -0.019161828
-0.16732228 -0.052024812 -0.01938539
-0.16783307 -0.052255701 -0.019352021
-0.16821851 -0.052607343 -0.019575438
-0.16860369 -0.052958738 -0.0197987
-0.17024787 -0.052101959 -0.017449221
-0.17088649 -0.052212242 -0.01715751
-0.17267127 -0.051228169 -0.014531391
-0.17318529 -0.051460519 -0.014497811
-0.17293252 -0.052422289 -0.016022142
-0.054607719 0.011108425 -0.0086107422
-0.05477931 0.010286918 -0.0096435342
-0.054599699 0.0088865664 -0.011734364
-0.054508381 0.0076383911 -0.013549863
-0.054853555 0.0071151187 -0.014042675
-0.055548426 0.0071682506 -0.013481919
-0.05589287 0.0066453107 -0.013974777
-0.055886149 0.005549741 -0.015516926
-0.055530537 0.0038898028 -0.01809519
-0.054831184 0.0016784166 -0.021687826
-0.055172265 0.0011651863 -0.022169411
-0.055512868 0.0006526747 -0.02265032
-0.055766411 1.18361e-06 -0.023387179
-0.056279343 -0.00023068051 -0.023353668
-0.056618575 -0.0007413209 -0.02383291
-0.056783762 -0.0015290845 -0.024822826
-0.057035178 -0.0021762496 -0.0255551
-0.057459634 -0.0025457079 -0.025776591
-0.057883788 -0.0029149088 -0.025997926
-0.058307651 -0.0032838525 -0.026219105
-0.058818441 -0.0035147478 -0.026185736
-0.059329227 -0.003745643 -0.026152367
-0.059840016 -0.0039765378 -0.026118997
-0.060350802 -0.0042074332 -0.026085628
-0.060861595 -0.0044383281 -0.026052259
-0.06128427 -0.0048066131 -0.026273344
-0.061706655 -0.0051746415 -0.026494274
-0.062128741 -0.0055424143 -0.026715051
-0.062727518 -0.0056361109 -0.026427582
-0.063060619 -0.006140505 -0.026902353
-0.063481942 -0.0065076863 -0.027122835
-0.063991837 -0.0067381798 -0.027089523
-0.064590849 -0.0068322266 -0.026802383
-0.065100931 -0.0070628007 -0.026769061
-0.065611005 -0.0072933747 -0.026735738
-0.066121086 -0.0075239488 -0.026702415
-0.066541344 -0.0078906482 -0.026922965
-0.066961311 -0.0082570938 -0.027143365
-0.067380987 -0.0086232843 -0.02736361
-0.06780038 -0.0089892205 -0.027583702
-0.068309747 -0.0092194742 -0.027550425
-0.069090851 -0.009043118 -0.026756411
-0.069691628 -0.0091379657 -0.026469154
-0.070110649 -0.009504105 -0.026689786
-0.070529379 -0.009869989 -0.026910268
-0.071039103 -0.010100403 -0.026876967
-0.07164035 -0.010195586 -0.026589854
-0.072150253 -0.01042608 -0.026556542
-0.072476454 -0.01092662 -0.027030727
-0.072985999 -0.011156954 -0.02699744
-0.073679954 -0.011117562 -0.026456608
-0.074189857 -0.011348055 -0.026423296
-0.074792415 -0.011443705 -0.026135925
-0.075302489 -0.011674279 -0.026102602
-0.075905636 -0.011770076 -0.025815019
-0.076322645 -0.012135427 -0.026035957
-0.076739356 -0.012500524 -0.02625674
-0.077155784 -0.012865367 -0.026477369
-0.077665508 -0.01309578 -0.026444068
-0.078081466 -0.01346029 -0.026664559
-0.078497134 -0.013824547 -0.026884893
-0.079006501 -0.0140548 -0.026851617
-0.079515867 -0.014285053 -0.026818339
-0.080025248 -0.014515308 -0.026785063
-0.080534615 -0.01474556 -0.026751785
-0.081043981 -0.014975815 -0.02671851
-0.081553355 -0.015206068 -0.026685232
-0.082062721 -0.015436321 -0.026651956
-0.082476862 -0.015799766 -0.02687222
-0.082890719 -0.016162956 -0.027092328
-0.083399735 -0.016393051 -0.027059074
-0.083908752 -0.016623145 -0.027025823
-0.08441776 -0.016853239 -0.026992567
-0.084830806 -0.017215939 -0.027212558
-0.085243553 -0.017578386 -0.027432397
-0.085752219 -0.017808322 -0.027399167
-0.086260878 -0.018038256 -0.027365938
-0.086866155 -0.018135995 -0.027079592
-0.087471865 -0.0182338 -0.026793048
-0.088175155 -0.018199366 -0.026252637
-0.088684522 -0.018429618 -0.026219361
-0.089291491 -0.018527631 -0.025932219
-0.089703262 -0.018890126 -0.026152806
-0.090310581 -0.018988296 -0.02586564
-0.090820119 -0.019218629 -0.025832353
-0.091329671 -0.019448964 -0.025799064
-0.091839217 -0.019679297 -0.025765778
-0.09244749 -0.019777777 -0.025478376
-0.092957214 -0.02000819 -0.025445078
-0.09336786 -0.020370299 -0.025665913
-0.093778223 -0.020732155 -0.025886595
-0.094188295 -0.02109376 -0.026107123
-0.094399482 -0.021717204 -0.026834249
-0.094709471 -0.022208702 -0.027307093
-0.095217779 -0.022438476 -0.027273886
-0.095726095 -0.022668252 -0.027240679
-0.096234404 -0.022898028 -0.027207471
-0.096742712 -0.023127802 -0.027174262
-0.09725102 -0.023357576 -0.027141057
-0.097759336 -0.023587352 -0.02710785
-0.098468788 -0.023556678 -0.026568407
-0.098977454 -0.02378661 -0.026535176
-0.099385157 -0.024146656 -0.026755175
-0.099792577 -0.024506452 -0.026975019
-0.10030089 -0.024736226 -0.026941812
-0.10080919 -0.024966 -0.026908604
-0.10111453 -0.025454909 -0.027381068
-0.10172412 -0.025555082 -0.027095124
-0.10223226 -0.025784777 -0.027061928
-0.10274038 -0.026014473 -0.027028732
-0.10335074 -0.026114874 -0.026742566
-0.10385906 -0.026344648 -0.026709361
-0.10447002 -0.026445201 -0.026422985
-0.10497851 -0.026675055 -0.026389765
-0.10559007 -0.026775755 -0.02610318
-0.10599548 -0.027134763 -0.026323328
-0.10640061 -0.027493523 -0.026543323
-0.10690892 -0.027723297 -0.026510114
-0.10741723 -0.027953073 -0.026476908
-0.10792554 -0.028182847 -0.026443701
-0.10832986 -0.02854112 -0.026663577
-0.108838 -0.028770816 -0.026630381
-0.10934613 -0.02900051 -0.026597185
-0.10964545 -0.029486455 -0.027069703
-0.11025778 -0.029587992 -0.026783749
-0.11066101 -0.029945528 -0.027003355
-0.1112737 -0.030047223 -0.02671738
-0.11178166 -0.030276839 -0.026684195
-0.11239494 -0.030378681 -0.026398011
-0.11290307 -0.030608378 -0.026364814
-0.11351695 -0.030710371 -0.026078418
-0.11402526 -0.030940145 -0.026045213
-0.11442748 -0.031297464 -0.026265226
-0.11493561 -0.031527158 -0.02623203
-0.11533736 -0.031884149 -0.026451904
-0.11573884 -0.03224089 -0.026671628
-0.11624662 -0.032470424 -0.026638452
-0.11675441 -0.032699961 -0.02660528
-0.11704838 -0.033183012 -0.027077463
-0.11755582 -0.033412393 -0.027044313
-0.11795611 -0.033768233 -0.027263604
-0.11846337 -0.033997532 -0.027230466
-0.1188632 -0.034353051 -0.027449613
-0.11937028 -0.034582268 -0.027416486
-0.11998513 -0.034685425 -0.027131049
-0.12049238 -0.034914721 -0.027097911
-0.12132444 -0.034765787 -0.026306724
-0.12183222 -0.034995325 -0.026273552
-0.12234 -0.035224862 -0.026240377
-0.12252141 -0.035831917 -0.026965357
-0.12313756 -0.03593554 -0.026679665
-0.12375414 -0.036039237 -0.026393775
-0.12426174 -0.036268692 -0.026360612
-0.12487891 -0.036372539 -0.026074512
-0.12505768 -0.036978405 -0.026799664
-0.12567471 -0.037082426 -0.026513914
-0.1260722 -0.037436999 -0.026733387
-0.12635943 -0.037916277 -0.027204992
-0.12708671 -0.037895598 -0.026667111
-0.12737325 -0.038374558 -0.027138762
-0.12821187 -0.038229313 -0.026348164
-0.1287193 -0.03845869 -0.026315015
-0.1293378 -0.038563259 -0.026028998
-0.13006815 -0.038543005 -0.025489556
-0.13046452 -0.03889744 -0.025709612
-0.13097231 -0.039126977 -0.025676437
-0.13125646 -0.03960558 -0.026149265
-0.13165201 -0.039959282 -0.026368862
-0.13204728 -0.040312737 -0.02658831
-0.1324423 -0.040665951 -0.026807604
-0.13294919 -0.040895093 -0.026774488
-0.13334376 -0.041247983 -0.026993645
-0.133963 -0.041353371 -0.026708258
-0.13458268 -0.04145883 -0.026422674
-0.13508977 -0.041688051 -0.026389547
-0.13559684 -0.041917268 -0.026356421
-0.1358774 -0.042393282 -0.026828123
-0.13638413 -0.042622343 -0.026795018
-0.13677737 -0.042974513 -0.027014092
-0.13739759 -0.043080464 -0.026728811
-0.13779049 -0.043432478 -0.026947904
-0.13829702 -0.043661457 -0.026914813
-0.13880359 -0.043890439 -0.026881719
-0.13931014 -0.044119418 -0.026848627
-0.1398167 -0.0443484 -0.026815536
-0.14009406 -0.044822242 -0.027286433
-0.1404856 -0.045173291 -0.027505107
-0.14099163 -0.045402035 -0.027472049
-0.14172775 -0.045386564 -0.026935279
-0.14234947 -0.045493308 -0.026650069
-0.1430873 -0.045477882 -0.026112176
-0.14347835 -0.045829184 -0.026331561
-0.1441011 -0.04593616 -0.026045946
-0.14460801 -0.046165299 -0.02601283
-0.14499854 -0.04651637 -0.026232248
-0.14550526 -0.046745431 -0.026199145
-0.14601199 -0.046974488 -0.02616604
-0.14651872 -0.047203548 -0.026132934
-0.14714253 -0.047310997 -0.025847252
-0.14764942 -0.047540136 -0.025814136
-0.14827386 -0.047647737 -0.025528245
-0.14866324 -0.047998417 -0.025747906
-0.14928801 -0.048106175 -0.02546199
-0.14991321 -0.048214007 -0.025175877
-0.15065728 -0.048200443 -0.024636216
-0.15116489 -0.048429903 -0.024603056
-0.1516725 -0.048659354 -0.024569895
-0.15170467 -0.049373254 -0.025549211
-0.15185535 -0.049964607 -0.026273653
-0.1521243 -0.050434411 -0.026744762
-0.15251157 -0.050783403 -0.026963551
-0.15325539 -0.050771646 -0.026426615
-0.15376158 -0.051000468 -0.026393546
-0.1537908 -0.051709168 -0.027367648
-0.15429631 -0.051937677 -0.027334623
-0.1548018 -0.052166183 -0.0273016
-0.15602644 -0.0516758 -0.025756568
-0.15701477 -0.051424179 -0.024711937
-0.15873408 -0.050446935 -0.022137554
-0.15948687 -0.050434873 -0.02159391
-0.15999624 -0.050665122 -0.021560634
-0.16038333 -0.051016338 -0.021782663
-0.16077016 -0.051367305 -0.022004539
-0.16152436 -0.051355883 -0.021460803
-0.16215663 -0.051465336 -0.021172009
-0.16266617 -0.051695667 -0.02113872
-0.16366959 -0.05144259 -0.020081487
-0.16442765 -0.05143119 -0.019535085
-0.16506247 -0.051540934 -0.019244915
-0.16557325 -0.051771827 -0.019211546
-0.16608405 -0.052002724 -0.019178176
-0.16659483 -0.052233621 -0.019144805
-0.16710562 -0.052464511 -0.019111438
-0.16761641 -0.052695408 -0.019078068
-0.16800192 -0.053046893 -0.01930158
-0.16838717 -0.053398132 -0.019524939
-0.16940032 -0.053146984 -0.018463612
-0.17003754 -0.053257443 -0.018172765
-0.17105475 -0.053005658 -0.017107699
-0.17144001 -0.053357892 -0.017332446
-0.17195186 -0.053589273 -0.017299006
-0.17246372 -0.053820647 -0.017265566
-0.17374083 -0.053327564 -0.015680023
-0.054909199 0.010421069 -0.0082957419
-0.054466076 0.0085827783 -0.011189703
-0.054287802 0.0071907355 -0.013270958
-0.054807827 0.0069556651 -0.013236986
-0.055503163 0.0070087221 -0.012675258
-0.055935685 0.0066294535 -0.012905245
-0.056192104 0.0059630689 -0.013662121
-0.055659976 0.0040133642 -0.016775019
-0.055132337 0.0020800994 -0.019861668
-0.055127274 0.00100335 -0.021378458
-0.055468146 0.00049059273 -0.021860261
-0.055548843 -0.00044036622 -0.023112077
-0.055888586 -0.00095086003 -0.023591489
-0.056227852 -0.0014606408 -0.024070229
-0.056566652 -0.0019697098 -0.024548301
-0.056818295 -0.0026164141 -0.025280861
-0.057329617 -0.0028475507 -0.025247458
-0.057667054 -0.0033547666 -0.025723876
-0.058178019 -0.0035857423 -0.025690496
-0.058601782 -0.0039544525 -0.025911784
-0.059025243 -0.0043229056 -0.026132917
-0.059535854 -0.0045537204 -0.026099559
-0.060134143 -0.0046471376 -0.025811676
-0.060644936 -0.0048780325 -0.025778307
-0.060803942 -0.0056573018 -0.026762074
-0.06131402 -0.0058878763 -0.026728751
-0.061824102 -0.0061184503 -0.026695427
-0.062422566 -0.0062123141 -0.02640805
-0.062844254 -0.0065795979 -0.026628783
-0.063265659 -0.0069466261 -0.026849359
-0.063775562 -0.0071771196 -0.026816048
-0.064285465 -0.0074076136 -0.026782736
-0.06479536 -0.0076381075 -0.026749425
-0.065305263 -0.007868601 -0.026716115
-0.065815166 -0.008099095 -0.026682802
-0.066235378 -0.008465467 -0.026903285
-0.066655308 -0.0088315858 -0.027123611
-0.066985101 -0.009332886 -0.027597075
-0.067494296 -0.0095630595 -0.02756381
-0.068093687 -0.0096579567 -0.027277235
-0.068603061 -0.0098882103 -0.027243957
-0.069293723 -0.0098479502 -0.026703486
-0.069712587 -0.010213587 -0.026923884
-0.070222139 -0.010443921 -0.026890595
-0.070822895 -0.01053919 -0.026603587
-0.071332619 -0.010769605 -0.026570287
-0.071842335 -0.011000019 -0.026536988
-0.07226032 -0.011365255 -0.026757443
-0.072769865 -0.01159559 -0.026724154
-0.073187381 -0.011960493 -0.026944468
-0.073788963 -0.012056257 -0.026657578
-0.074298508 -0.012286589 -0.026624288
-0.074808054 -0.012516924 -0.026591001
-0.075503275 -0.012478476 -0.026049886
-0.076013178 -0.01270897 -0.026016574
-0.076429859 -0.013073741 -0.02623729
-0.076752968 -0.013572268 -0.026711531
-0.077262335 -0.013802522 -0.026678255
-0.077771708 -0.014032776 -0.026644977
-0.078281075 -0.014263029 -0.026611703
-0.078696534 -0.014626881 -0.026831977
-0.079111703 -0.01499048 -0.027052101
-0.079620712 -0.015220572 -0.027018849
-0.080129728 -0.015450667 -0.026985595
-0.080638751 -0.01568076 -0.026952341
-0.081242494 -0.01577775 -0.026665654
-0.081656776 -0.016140947 -0.026885834
-0.082070775 -0.016503895 -0.027105864
-0.082484484 -0.016866591 -0.027325738
-0.083183825 -0.01683123 -0.026786074
-0.083692841 -0.017061323 -0.02675282
-0.084201857 -0.017291415 -0.026719566
-0.084710874 -0.017521512 -0.026686314
-0.085123807 -0.017883981 -0.02690641
-0.085440338 -0.018378308 -0.027379368
-0.086045124 -0.01847613 -0.027093126
-0.086650327 -0.01857402 -0.026806684
-0.087159164 -0.018804036 -0.026773443
-0.087668009 -0.019034049 -0.026740203
-0.088371195 -0.01900018 -0.026199942
-0.08888039 -0.019230355 -0.026166677
-0.089487202 -0.019328609 -0.025879616
-0.089996576 -0.019558862 -0.02584634
-0.090604 -0.019657265 -0.025559066
-0.091113538 -0.0198876 -0.02552578
-0.091623083 -0.020117933 -0.025492491
-0.092132628 -0.020348266 -0.025459204
-0.092543416 -0.020710131 -0.025679957
-0.09305279 -0.020940384 -0.025646679
-0.093463123 -0.021301916 -0.025867291
-0.093873158 -0.021663198 -0.02608775
-0.094084613 -0.022285834 -0.026814645
-0.094493866 -0.022646273 -0.027034471
-0.095002174 -0.022876048 -0.027001264
-0.09551049 -0.023105824 -0.026968056
-0.096018799 -0.023335598 -0.026934849
-0.096427247 -0.023695549 -0.027154554
-0.096935377 -0.023925245 -0.027121359
-0.097543724 -0.024024921 -0.026835226
-0.098152496 -0.024124669 -0.026548894
-0.098560348 -0.024484472 -0.026768811
-0.099068657 -0.024714246 -0.026735604
-0.099576965 -0.02494402 -0.026702397
-0.099883154 -0.025432946 -0.027175004
-0.10039111 -0.025662562 -0.027141819
-0.10089907 -0.025892178 -0.027108636
-0.10150858 -0.025992502 -0.026822595
-0.10201672 -0.026222197 -0.026789401
-0.10252485 -0.026451893 -0.026756205
-0.10303299 -0.026681587 -0.026723007
-0.10354112 -0.026911281 -0.026689813
-0.10415176 -0.027011996 -0.02640353
-0.10476282 -0.027112778 -0.026117049
-0.10527131 -0.027342632 -0.026083831
-0.10567669 -0.027701318 -0.026303908
-0.106185 -0.027931092 -0.026270701
-0.10669331 -0.02816087 -0.026237492
-0.10709806 -0.028519148 -0.026457442
-0.10739893 -0.029005429 -0.026930053
-0.10790671 -0.029234964 -0.026896881
-0.1084145 -0.0294645 -0.026863709
-0.10892228 -0.029694036 -0.026830534
-0.10932583 -0.030051414 -0.027050048
-0.10983344 -0.030280871 -0.027016887
-0.11044563 -0.030382644 -0.026731016
-0.11105824 -0.03048449 -0.026444945
-0.11156619 -0.030714106 -0.026411762
-0.11217941 -0.030816101 -0.026125481
-0.11268754 -0.031045796 -0.026092285
-0.11319567 -0.031275492 -0.026059089
-0.1137038 -0.031505186 -0.026025895
-0.11410598 -0.031862184 -0.02624584
-0.11450789 -0.032218933 -0.026465634
-0.11501567 -0.032448471 -0.026432458
-0.11552345 -0.032678004 -0.026399286
-0.11592472 -0.033034351 -0.02661895
-0.11632571 -0.033390451 -0.026838463
-0.11672644 -0.033746298 -0.027057823
-0.11723369 -0.033975597 -0.027024684
-0.11774094 -0.0342049 -0.026991546
-0.11814104 -0.034560345 -0.027210778
-0.11854085 -0.034915548 -0.027429856
-0.1191552 -0.035018779 -0.027144523
-0.11976997 -0.035122089 -0.026858991
-0.12027722 -0.035351388 -0.026825853
-0.12110905 -0.035202906 -0.026034383
-0.12172536 -0.03530642 -0.025748074
-0.12223332 -0.035536032 -0.025714887
-0.12230624 -0.036268577 -0.026693298
-0.12292232 -0.036372356 -0.026407512
-0.12353882 -0.036476202 -0.026121529
-0.12404642 -0.036705658 -0.026088368
-0.12444461 -0.037060484 -0.026308063
-0.12484252 -0.037415069 -0.026527608
-0.12513061 -0.037894361 -0.026999352
-0.12563752 -0.038123496 -0.026966238
-0.12614442 -0.038352638 -0.026933122
-0.12687154 -0.038332261 -0.026395053
-0.12726848 -0.038686279 -0.026614491
-0.12810728 -0.038541313 -0.025823075
-0.12839331 -0.039020158 -0.026295638
-0.1291225 -0.039000224 -0.025756752
-0.12951893 -0.039354261 -0.025976563
-0.13002636 -0.039583638 -0.025943413
-0.13075693 -0.039564092 -0.025404099
-0.13104121 -0.040042393 -0.025877113
-0.13143684 -0.040395942 -0.026096806
-0.13194409 -0.040625241 -0.026063668
-0.13222729 -0.041102309 -0.026535736
-0.13273418 -0.041331451 -0.02650262
-0.13312882 -0.041684192 -0.026721869
-0.13363555 -0.041913249 -0.026688764
-0.1342549 -0.042018872 -0.026403273
-0.13487469 -0.042124562 -0.026117584
-0.13515574 -0.042600434 -0.026589453
-0.1355494 -0.042952608 -0.026808595
-0.13605596 -0.043181591 -0.026775504
-0.1365625 -0.043410573 -0.02674241
-0.13706906 -0.043639556 -0.026709316
-0.13757561 -0.043868538 -0.026676225
-0.1379683 -0.044220157 -0.026895262
-0.13847469 -0.044449057 -0.02686218
-0.13898106 -0.044677958 -0.026829099
-0.13948745 -0.044906866 -0.026796019
-0.13987933 -0.045258004 -0.027014939
-0.14027095 -0.0456089 -0.027233707
-0.14089175 -0.045715649 -0.026948798
-0.14162806 -0.045700386 -0.026411481
-0.14213459 -0.045929369 -0.026378389
-0.14287229 -0.04591424 -0.025840307
-0.14326341 -0.046265397 -0.026059786
-0.14377014 -0.046494458 -0.026026681
-0.14427687 -0.046723519 -0.025993578
-0.1447836 -0.046952579 -0.025960471
-0.14529033 -0.04718164 -0.025927369
-0.14579706 -0.047410697 -0.025894264
-0.14630379 -0.047639757 -0.025861161
-0.14681052 -0.047868822 -0.025828056
-0.14731725 -0.048097882 -0.025794953
-0.14794134 -0.048205636 -0.025509151
-0.14844823 -0.048434775 -0.025476037
-0.14895514 -0.048663918 -0.025442921
-0.14969805 -0.048650675 -0.024903821
-0.15020528 -0.04887997 -0.024870683
-0.15071255 -0.049109269 -0.024837542
-0.15110125 -0.049459562 -0.025057519
-0.1512526 -0.05005103 -0.025782721
-0.15140362 -0.050641272 -0.026506422
-0.15179114 -0.050990194 -0.02672529
-0.15217839 -0.05133887 -0.02694401
-0.15280285 -0.051447526 -0.026659196
-0.1533087 -0.051676188 -0.026626151
-0.15369543 -0.052024633 -0.026844902
-0.15408188 -0.052372832 -0.027063504
-0.15458739 -0.052601341 -0.027030479
-0.1550929 -0.05282985 -0.026997456
-0.15631813 -0.052340843 -0.025451794
-0.15851818 -0.050885107 -0.021864552
-0.15927082 -0.05087335 -0.021320719
-0.1597802 -0.051103607 -0.021287443
-0.16004522 -0.051575392 -0.021764791
-0.16055425 -0.051805485 -0.021731539
-0.16094087 -0.052156061 -0.021953356
-0.16181767 -0.052024622 -0.021154335
-0.16245005 -0.052134305 -0.020865435
-0.16295958 -0.05236464 -0.020832146
-0.16383971 -0.052233234 -0.020030845
-0.16434979 -0.052463811 -0.019997522
-0.16523229 -0.052332371 -0.019194514
-0.1657429 -0.052563187 -0.019161155
-0.16637817 -0.052673325 -0.018870855
-0.16676411 -0.053024814 -0.019094441
-0.16727473 -0.053255629 -0.019061083
-0.16778535 -0.053486448 -0.019027725
-0.16842134 -0.053596906 -0.018737378
-0.16918351 -0.053586993 -0.018189467
-0.16969465 -0.053818051 -0.018156076
-0.1702058 -0.054049108 -0.018122684
-0.17084329 -0.054159876 -0.017831719
-0.17160794 -0.054150354 -0.017282603
-0.17224659 -0.054261275 -0.016991042
-0.17263131 -0.054612949 -0.017215749
-0.054770738 0.0090049477 -0.0093150707
-0.054328941 0.0071754474 -0.012199916
-0.054762036 0.0067959856 -0.012430152
-0.0553701 0.0067048064 -0.012131899
-0.055890679 0.0064694858 -0.01209789
-0.056147322 0.0058027986 -0.012856161
-0.055702366 0.0039947857 -0.015712986
-0.055783302 0.0030501003 -0.016985791
-0.05534225 0.001262881 -0.019810608
-0.055336751 0.00018822742 -0.021326972
-0.055331271 -0.00088191603 -0.022836976
-0.055757657 -0.0012529893 -0.023060111
-0.056010589 -0.0019015737 -0.023795512
-0.056349538 -0.002410335 -0.024273776
-0.056601405 -0.0030565783 -0.025006624
-0.057112731 -0.0032877149 -0.024973219
-0.057450317 -0.0037946242 -0.025449829
-0.057874333 -0.004163262 -0.025671201
-0.058298051 -0.0045316424 -0.02589242
-0.058808658 -0.0047624568 -0.02585906
-0.059231903 -0.0051305015 -0.026080137
-0.05982988 -0.0052240868 -0.025792345
-0.060077507 -0.0058658207 -0.026521826
-0.060587585 -0.0060963952 -0.026488502
-0.061097663 -0.0063269688 -0.026455179
-0.061607741 -0.0065575428 -0.026421856
-0.06220613 -0.0066515598 -0.026134387
-0.062627897 -0.0070186905 -0.026355211
-0.063137978 -0.0072492645 -0.026321888
-0.063559279 -0.0076160603 -0.026542572
-0.064069174 -0.0078465538 -0.026509261
-0.064490005 -0.0082130143 -0.026729804
-0.064999722 -0.0084434282 -0.026696503
-0.065598875 -0.0085380357 -0.026409326
-0.06601917 -0.008904255 -0.026629904
-0.066349521 -0.0094056791 -0.027103873
-0.066769116 -0.0097712167 -0.027323978
-0.067278311 -0.01000139 -0.027290715
-0.067877635 -0.01009644 -0.027004045
-0.068387002 -0.010326694 -0.026970766
-0.068986908 -0.010421889 -0.026683886
-0.069405742 -0.010787201 -0.026904212
-0.070006005 -0.010882556 -0.026617309
-0.070515551 -0.01111289 -0.02658402
-0.07111641 -0.011208392 -0.026296906
-0.071626127 -0.011438806 -0.026263606
-0.072044186 -0.011803892 -0.026484156
-0.072461955 -0.012168722 -0.026704554
-0.072971322 -0.012398976 -0.026671277
-0.073480688 -0.01262923 -0.026638001
-0.074082375 -0.012725226 -0.026351003
-0.07459192 -0.012955558 -0.026317714
-0.075101472 -0.013185892 -0.026284428
-0.075611018 -0.013416226 -0.026251139
-0.076027542 -0.013780498 -0.026471617
-0.076350711 -0.014278188 -0.026945367
-0.076952972 -0.01437469 -0.026658678
-0.077462167 -0.014604864 -0.026625412
-0.077971362 -0.014835037 -0.026592148
-0.078480549 -0.015065211 -0.026558882
-0.078895792 -0.015428658 -0.0267791
-0.079404809 -0.015658751 -0.026745848
-0.079913825 -0.015888846 -0.026712593
-0.08032842 -0.016251881 -0.026932683
-0.080742739 -0.016614662 -0.027152618
-0.08106219 -0.0171097 -0.02762524
-0.081570506 -0.017339474 -0.027592033
-0.082078815 -0.017569248 -0.027558826
-0.082682222 -0.017666757 -0.027272746
-0.083476938 -0.017499503 -0.026479818
-0.084081665 -0.017597122 -0.026192967
-0.084686823 -0.017694809 -0.025905915
-0.08500398 -0.018189782 -0.026380058
-0.085416816 -0.018552018 -0.026600262
-0.08582937 -0.018914005 -0.026820315
-0.086338028 -0.019143937 -0.026787084
-0.086846687 -0.019373873 -0.026753852
-0.087452173 -0.019472074 -0.026467295
-0.087961011 -0.01970209 -0.026434053
-0.088469855 -0.019932104 -0.02640081
-0.089173593 -0.01989886 -0.025860315
-0.089682788 -0.020129032 -0.025827052
-0.090289883 -0.020227598 -0.025539871
-0.090407334 -0.020983411 -0.026521239
-0.090915993 -0.021213347 -0.02648801
-0.09171956 -0.021049727 -0.02569399
-0.092327364 -0.021148613 -0.025406765
-0.09283673 -0.021378865 -0.025373489
-0.093148239 -0.021871284 -0.025848001
-0.093459308 -0.022363018 -0.026321858
-0.093868926 -0.022723557 -0.02654193
-0.094278261 -0.023083845 -0.026761848
-0.094786569 -0.023313619 -0.026728639
-0.095294878 -0.023543393 -0.026695432
-0.095703572 -0.023903275 -0.026915222
-0.096211709 -0.024132969 -0.026882026
-0.096719839 -0.024362663 -0.02684883
-0.097227983 -0.024592359 -0.026815636
-0.097836435 -0.024692269 -0.026529396
-0.098344743 -0.024922043 -0.026496189
-0.098752379 -0.025281444 -0.026716048
-0.09915974 -0.025640598 -0.026935752
-0.099566817 -0.025999501 -0.027155308
-0.10017565 -0.026099829 -0.026869385
-0.10068361 -0.026329445 -0.026836202
-0.10119157 -0.02655906 -0.026803017
-0.10169953 -0.026788676 -0.02676983
-0.10220749 -0.027018292 -0.026736647
-0.10271545 -0.027247908 -0.026703462
-0.10322341 -0.027477523 -0.026670279
-0.10383373 -0.027578399 -0.026384089
-0.10444447 -0.027679341 -0.0260977
-0.10495277 -0.027909115 -0.026064491
-0.10535812 -0.028267482 -0.026284501
-0.1057632 -0.0286256 -0.026504356
-0.10616799 -0.028983472 -0.026724059
-0.10667577 -0.029213009 -0.026690887
-0.10697673 -0.029698471 -0.027163012
-0.10748415 -0.029927848 -0.027129862
-0.10799158 -0.030157227 -0.027096711
-0.10849901 -0.030386604 -0.02706356
-0.10900645 -0.03061598 -0.02703041
-0.10961813 -0.030717837 -0.026744641
-0.11012574 -0.030947292 -0.026711481
-0.11084277 -0.030921759 -0.026172511
-0.11124581 -0.031278834 -0.026392329
-0.1118587 -0.031380989 -0.026106143
-0.11236665 -0.031610604 -0.026072958
-0.11298014 -0.031712912 -0.025786562
-0.11327694 -0.03219698 -0.026259638
-0.11367898 -0.03255349 -0.02647935
-0.11408076 -0.032909755 -0.026698912
-0.11448225 -0.033265773 -0.02691832
-0.11498951 -0.033495072 -0.026885182
-0.11549676 -0.033724368 -0.026852043
-0.11600402 -0.033953667 -0.026818905
-0.11651128 -0.034182966 -0.026785767
-0.11701853 -0.034412261 -0.026752627
-0.11741887 -0.034767639 -0.026971942
-0.11792595 -0.034996856 -0.026938815
-0.11832584 -0.035351906 -0.027157988
-0.11883274 -0.035581049 -0.027124872
-0.11955481 -0.035558749 -0.026586935
-0.12016993 -0.035662282 -0.026301112
-0.12089367 -0.035640024 -0.025762046
-0.12150989 -0.035743687 -0.02547564
-0.12190924 -0.036099095 -0.0256957
-0.12209108 -0.036705241 -0.026421241
-0.12259834 -0.03693454 -0.026388103
-0.12321451 -0.037038546 -0.026102211
-0.12372195 -0.037267927 -0.026069062
-0.12422938 -0.037497301 -0.026035912
-0.12440869 -0.03810158 -0.026760601
-0.1248062 -0.038455438 -0.026979761
-0.12531294 -0.038684499 -0.026946656
-0.1259294 -0.038788997 -0.026661253
-0.12654631 -0.038893573 -0.026375655
-0.12705339 -0.039122794 -0.026342528
-0.12767088 -0.039227519 -0.026056718
-0.12806755 -0.039581232 -0.026276274
-0.12879625 -0.039561696 -0.025737561
-0.12930368 -0.039791074 -0.025704412
-0.12981111 -0.040020451 -0.025671262
-0.13031854 -0.040249828 -0.025638111
-0.13082597 -0.040479206 -0.025604961
-0.13133341 -0.040708583 -0.025571812
-0.13161711 -0.041185759 -0.026044384
-0.13201226 -0.041538674 -0.026263867
