# .PCD v0.7 - Point Cloud Data file format
VERSION 0.7
FIELDS x y z
SIZE 4 4 4
TYPE F F F
COUNT 1 1 1
WIDTH 1205
HEIGHT 1
VIEWPOINT 0 0 0 1 0 0 0
POINTS 1205
DATA ascii
-0.075556643 -0.015541198 -0.0080982354
-0.070770755 -0.017846825 -0.0084332004
-0.070083298 -0.01792795 -0.0087539433
-0.069294535 -0.017772749 -0.0093926396
-0.068608545 -0.017853804 -0.0097125862
-0.067519054 -0.016992221 -0.011300416
-0.066936061 -0.017308686 -0.011302401
-0.066252738 -0.01738973 -0.011620768
-0.064971685 -0.016062651 -0.013830124
-0.064887784 -0.017551623 -0.012256715
-0.065303631 -0.020230679 -0.0090883598
-0.064919084 -0.02102327 -0.0084531335
-0.064333923 -0.021340914 -0.0084551265
-0.063848458 -0.021896722 -0.0081381155
-0.0849365 -0.0089885816 -0.0085982746
-0.084351823 -0.0093059624 -0.0086002657
-0.083767138 -0.0096233441 -0.0086022569
-0.083182454 -0.0099407267 -0.008604249
-0.082597777 -0.010258107 -0.0086062402
-0.081905998 -0.010342306 -0.0089266449
-0.081321552 -0.010659557 -0.0089286352
-0.080737114 -0.010976806 -0.0089306263
-0.080365509 -0.011761404 -0.0082955323
-0.079780586 -0.012078917 -0.0082975244
-0.079195656 -0.01239643 -0.0082995165
-0.07802581 -0.013031456 -0.0083035007
-0.077335641 -0.013114541 -0.0086241644
-0.076331794 -0.012495626 -0.0098981997
-0.075748079 -0.012812482 -0.0099001871
-0.075477161 -0.013832058 -0.0089485422
-0.0704218 -0.017159125 -0.0083294017
-0.069632754 -0.017004561 -0.0089684501
-0.068845019 -0.01685025 -0.0096064415
-0.06805858 -0.016696198 -0.010243378
-0.067475103 -0.017012924 -0.010245365
-0.066690445 -0.016858863 -0.010881249
-0.066107452 -0.017175328 -0.010883235
-0.065524459 -0.017491791 -0.010885221
-0.065141208 -0.018279826 -0.010253315
-0.065257728 -0.020254126 -0.0080284169
-0.085274868 -0.0082200747 -0.008173909
-0.084581979 -0.0083051166 -0.0084944926
-0.083997533 -0.0086223669 -0.0084964838
-0.083413094 -0.0089396173 -0.008498474
-0.082828648 -0.0092568668 -0.0085004643
-0.082137063 -0.0093414448 -0.0088207806
-0.081552863 -0.0096585639 -0.0088227708
-0.080968663 -0.0099756829 -0.0088247601
-0.080384471 -0.010292802 -0.0088267503
-0.079906456 -0.010843118 -0.0085104192
-0.079428039 -0.01139389 -0.0081938244
-0.078843363 -0.011711271 -0.0081958156
-0.078258686 -0.012028652 -0.0081978077
-0.077673994 -0.012346034 -0.0081997998
-0.076984257 -0.012429369 -0.0085203722
-0.076085873 -0.012045247 -0.0094765248
-0.075502157 -0.012362102 -0.0094785132
-0.075126685 -0.013146873 -0.0088446597
-0.069970973 -0.01623637 -0.0085442606
-0.068574235 -0.014674588 -0.011085357
-0.067991719 -0.014990792 -0.011087341
-0.067812771 -0.016246004 -0.0098218778
-0.067229293 -0.016562728 -0.0098238653
-0.066645823 -0.016879456 -0.0098258527
-0.066062339 -0.017196182 -0.0098278401
-0.065478869 -0.017512906 -0.0098298276
-0.084335752 -0.0078541776 -0.0080722943
-0.083751313 -0.008171428 -0.0080742845
-0.083059341 -0.008256454 -0.0083947768
-0.082475141 -0.008573574 -0.0083967671
-0.081890948 -0.0088906931 -0.0083987573
-0.081306748 -0.0092078112 -0.0084007476
-0.080616072 -0.0092923744 -0.0087209716
-0.080032118 -0.009609363 -0.00872296
-0.079448156 -0.0099263508 -0.0087249503
-0.078969955 -0.010476287 -0.0084087066
-0.078385755 -0.010793407 -0.0084106959
-0.077801563 -0.011110526 -0.0084126862
-0.077322468 -0.011661179 -0.0080961827
-0.076633163 -0.011744764 -0.0084166657
-0.075944416 -0.011828277 -0.0087368842
-0.07536047 -0.012145266 -0.0087388735
-0.07488057 -0.01269612 -0.0084226364
-0.074400276 -0.013247431 -0.0081061367
-0.069724753 -0.015785431 -0.0081220623
-0.068632506 -0.014927763 -0.0097138323
-0.068049267 -0.015244358 -0.0097158188
-0.067566954 -0.01579581 -0.0094003761
-0.067185067 -0.016583096 -0.008766721
-0.085041709 -0.0063059065 -0.00828321
-0.083873793 -0.0069398819 -0.0082871877
-0.082705885 -0.0075738579 -0.0082911663
-0.081537969 -0.0082078334 -0.008295144
-0.080954015 -0.0085248211 -0.0082971333
-0.080263771 -0.0086096311 -0.0086172689
-0.079680055 -0.0089264885 -0.0086192572
-0.079202138 -0.0094757844 -0.0083031002
-0.078618184 -0.0097927721 -0.0083050895
-0.07803423 -0.01010976 -0.0083070779
-0.077450268 -0.010426749 -0.0083090682
-0.076866321 -0.010743736 -0.0083110575
-0.075114451 -0.0116947 -0.0083170244
-0.07453049 -0.012011687 -0.0083190138
-0.068792462 -0.015416557 -0.0080205109
-0.068005748 -0.015263625 -0.0086590219
-0.06752301 -0.015815541 -0.0083428826
-0.085271291 -0.0053075408 -0.0081776995
-0.084687576 -0.0056243977 -0.0081796879
-0.082352713 -0.0068918248 -0.0081876405
-0.081185289 -0.0075255386 -0.0081916172
-0.080388986 -0.0073792501 -0.0088294595
-0.079805747 -0.0076958453 -0.0088314461
-0.079222515 -0.0080124401 -0.0088334326
-0.078639284 -0.0083290348 -0.0088354191
-0.078161336 -0.0088776303 -0.0085196132
-0.077682994 -0.0094266795 -0.0082035465
-0.077099279 -0.0097435359 -0.0082055349
-0.076515563 -0.010060393 -0.0082075233
-0.086084157 -0.0039932742 -0.0080702873
-0.085392371 -0.0040798858 -0.0083902534
-0.084809132 -0.0043964814 -0.0083922399
-0.08433374 -0.0049434518 -0.0080762496
-0.08375027 -0.0052601774 -0.008078238
-0.083166793 -0.0055769039 -0.0080802254
-0.082583323 -0.0058936295 -0.0080822129
-0.081999838 -0.0062103551 -0.0080842003
-0.080620199 -0.0063816775 -0.0087238541
-0.080143273 -0.0069292421 -0.0084081329
-0.079560034 -0.0072458372 -0.0084101195
-0.07897681 -0.0075624324 -0.008412106
-0.078288227 -0.0076475353 -0.0087317973
-0.07781034 -0.0081956228 -0.008416079
-0.077227101 -0.0085122176 -0.0084180655
-0.076748572 -0.0090608886 -0.0081020873
-0.076165102 -0.0093776146 -0.0081040747
-0.085621528 -0.0030836759 -0.0082848286
-0.085038535 -0.0034001402 -0.0082868151
-0.084455542 -0.0037166048 -0.0082887998
-0.080957592 -0.0056153913 -0.0083007151
-0.080374599 -0.0059318556 -0.0083027007
-0.079791605 -0.00624832 -0.0083046863
-0.079102971 -0.00633393 -0.0086242901
-0.078625619 -0.0068812491 -0.0083086584
-0.077832408 -0.0067356732 -0.008945615
-0.077459633 -0.0075141778 -0.0083126295
-0.076667383 -0.0073680799 -0.0089495834
-0.075814925 -0.0086954003 -0.008000711
-0.08468499 -0.0027209553 -0.0081834616
-0.08049956 -0.0047052051 -0.0085148886
-0.079917043 -0.0050214087 -0.0085168723
-0.079334535 -0.0053376118 -0.008518857
-0.078646667 -0.0054235267 -0.0088381087
-0.07806439 -0.0057395999 -0.0088400915
-0.077377334 -0.0058253137 -0.0091590798
-0.077004485 -0.0066024251 -0.0085267937
-0.076421976 -0.0069186287 -0.0085287774
-0.085496761 -0.0014099238 -0.0080762254
-0.084914245 -0.0017261272 -0.0080782101
-0.084224075 -0.001813531 -0.0083976435
-0.081419177 -0.0036233475 -0.0080901142
-0.080836661 -0.0039395508 -0.0080920989
-0.080254152 -0.0042557539 -0.0080940826
-0.079671636 -0.0045719575 -0.0080960672
-0.078983635 -0.0046581877 -0.0084154932
-0.078296192 -0.0047443477 -0.0087346565
-0.07771416 -0.0050602905 -0.0087366393
-0.077132128 -0.0053762333 -0.0087386221
-0.076550096 -0.0056921761 -0.008740603
-0.075968064 -0.0060081189 -0.0087425858
-0.083871298 -0.0011358397 -0.0082943728
-0.078050986 -0.0042952672 -0.0083141979
-0.077468954 -0.00461121 -0.0083161807
-0.076886922 -0.0049271528 -0.0083181625
-0.07630489 -0.0052430956 -0.0083201453
-0.075722866 -0.0055590384 -0.0083221272
-0.080028072 -0.0023535821 -0.0082030771
-0.079446271 -0.0026693947 -0.008205059
-0.077119112 -0.0039326451 -0.0082129855
-0.076537319 -0.004248458 -0.0082149664
-0.080840416 -0.0010448614 -0.0080960095
-0.080258869 -0.001360544 -0.0080979904
-0.079677314 -0.0016762265 -0.0080999704
-0.07899043 -0.001763507 -0.0084188702
-0.078409128 -0.0020790596 -0.0084208502
-0.080964692 0.00017473966 -0.0083078435
-0.080383621 -0.00014068313 -0.0083098235
-0.079221472 -0.00077152869 -0.0083137807
-0.078640394 -0.0010869515 -0.0083157606
-0.078059323 -0.0014023742 -0.0083177397
-0.077582911 -0.0019460863 -0.0080028903
-0.081194818 0.0011655129 -0.0082028434
-0.080613986 0.0008502198 -0.0082048215
-0.079822078 0.00098890334 -0.0088395085
-0.077605188 -0.00049864547 -0.0085311951
-0.077024586 -0.00081380893 -0.0085331723
-0.082585946 0.0027857984 -0.0080939746
-0.081899002 0.0026968278 -0.0084123518
-0.081212625 0.0026079302 -0.0087304665
-0.080738291 0.0020667599 -0.0084163044
-0.080157936 0.0017517259 -0.0084182816
-0.079577573 0.001436692 -0.0084202588
-0.077047534 0.00063045428 -0.0090601724
-0.076467641 0.00031567903 -0.0090621468
-0.076199397 -0.00068099954 -0.0081157284
-0.082128465 0.003685344 -0.0083074383
-0.081442274 0.0035960772 -0.0086254654
-0.080862395 0.0032813021 -0.0086274417
-0.080282509 0.0029665267 -0.0086294161
-0.079807989 0.002425726 -0.0083153415
-0.079333074 0.0018844807 -0.0080010099
-0.076595157 0.0015306614 -0.00927258
-0.076015748 0.0012161443 -0.0092745544
-0.075850926 -5.7228922e-06 -0.0080128703
-0.075270578 -0.00032075684 -0.0080148475
-0.081777856 0.0043582735 -0.0082045859
-0.081092089 0.0042687668 -0.0085225245
-0.080512442 0.0039541209 -0.0085244998
-0.079932809 0.003639475 -0.0085264742
-0.079353161 0.0033248288 -0.0085284477
-0.076247245 0.0022036463 -0.0091694584
-0.075668074 0.0018892584 -0.0091714319
-0.083746098 0.0062892349 -0.0080939205
-0.083166458 0.0059745885 -0.0080958949
-0.081427537 0.0050306506 -0.0081018182
-0.080742195 0.0049409047 -0.0084196692
-0.080162786 0.0046263882 -0.0084216436
-0.079583384 0.0043118712 -0.0084236162
-0.079003975 0.0039973538 -0.0084255897
-0.078529321 0.00345742 -0.0081116892
-0.076582409 0.002964905 -0.0087490967
-0.076003246 0.002650517 -0.0087510692
-0.075527549 0.0021102522 -0.0084374314
-0.080971748 0.0059268796 -0.0083149252
-0.080392584 0.0056124916 -0.0083168978
-0.079918683 0.0050734421 -0.0080030812
-0.079339288 0.0047589252 -0.0080050556
-0.078759879 0.0044444078 -0.0080070281
-0.075862855 0.002871823 -0.0080168974
-0.075283445 0.0025573061 -0.0080188699
-0.062541477 -0.078802072 -0.0083599426
-0.062892415 -0.07809075 -0.0082069822
-0.062263787 -0.077788986 -0.0082005123
-0.061635159 -0.077487215 -0.0081940424
-0.061006527 -0.077185437 -0.0081875715
-0.07015498 -0.080698088 -0.0081252987
-0.069526628 -0.080396444 -0.0081188306
-0.068898268 -0.080094807 -0.0081123626
-0.068269916 -0.07979317 -0.0081058964
-0.068032093 -0.078690857 -0.009112657
-0.067404553 -0.078389607 -0.0091061974
-0.066777013 -0.078088365 -0.0090997377
-0.066280246 -0.077521071 -0.0094304457
-0.065652966 -0.077219956 -0.0094239889
-0.064762965 -0.077450633 -0.0087428968
-0.064135149 -0.07714925 -0.0087364353
-0.063507333 -0.076847866 -0.0087299729
-0.062747166 -0.076812342 -0.0083857458
-0.061986335 -0.07677678 -0.0080412207
-0.061357979 -0.076475136 -0.0080347536
-0.060729623 -0.076173499 -0.0080282856
-0.058216196 -0.074966945 -0.0080024153
-0.057857018 -0.074135467 -0.0086718155
-0.057229206 -0.073834091 -0.008665354
-0.070631318 -0.079719342 -0.0083105173
-0.069505118 -0.07884986 -0.0086352499
-0.068877578 -0.078548618 -0.0086287912
-0.068250038 -0.078247368 -0.0086223315
-0.067622498 -0.077946119 -0.0086158728
-0.067125358 -0.077378899 -0.0089467894
-0.066628657 -0.076812163 -0.0092774201
-0.066262983 -0.075980887 -0.0099442722
-0.066028491 -0.074886844 -0.010945611
-0.065010071 -0.075379431 -0.0099313762
-0.064383611 -0.075078703 -0.0099249287
-0.063361742 -0.075572193 -0.0089080511
-0.062602162 -0.075536139 -0.0085642003
-0.061974626 -0.075234883 -0.0085577415
-0.058702864 -0.073993161 -0.008187741
-0.058209378 -0.073427409 -0.0085189864
-0.057581834 -0.073126152 -0.0085125277
-0.056954291 -0.072824903 -0.008506068
-0.070978142 -0.079008862 -0.0081578437
-0.070350602 -0.078707621 -0.0081513841
-0.069852285 -0.078140065 -0.0084825028
-0.069225013 -0.07783895 -0.0084760468
-0.068597749 -0.077537835 -0.00846959
-0.067970477 -0.077236719 -0.0084631341
-0.067473404 -0.076670043 -0.0087939734
-0.067106999 -0.075838894 -0.0094612427
-0.066741243 -0.075009175 -0.01012736
-0.066245764 -0.074444696 -0.010456768
-0.065358572 -0.074672364 -0.0097783329
-0.064601183 -0.07463599 -0.0094354516
-0.063974723 -0.074335262 -0.009429004
-0.062952317 -0.074827775 -0.0084114838
-0.062192567 -0.074791394 -0.008067416
-0.061565027 -0.074490152 -0.0080609582
-0.060937487 -0.074188903 -0.0080544986
-0.060443237 -0.073623307 -0.0083856583
-0.05994942 -0.073058195 -0.008716532
-0.059322421 -0.072757207 -0.008710078
-0.058561429 -0.072719954 -0.0083662895
-0.057934158 -0.072418839 -0.0083598327
-0.057306889 -0.072117724 -0.0083533768
-0.056679618 -0.071816608 -0.0083469199
-0.055917151 -0.071778923 -0.008002826
-0.071951941 -0.078600124 -0.0080117593
-0.071324676 -0.078299001 -0.0080053024
-0.068945155 -0.076828912 -0.0083169807
-0.068318151 -0.076527923 -0.0083105266
-0.067691155 -0.076226935 -0.0083040735
-0.067454606 -0.075131625 -0.0093084034
-0.066828422 -0.074831024 -0.0093019567
-0.066202231 -0.074530423 -0.009295512
-0.0654452 -0.074493989 -0.0089524221
-0.06481874 -0.074193262 -0.0089459745
-0.06419228 -0.073892534 -0.008939527
-0.060927145 -0.072652377 -0.0085703311
-0.060300417 -0.072351515 -0.0085638808
-0.059673689 -0.072050661 -0.0085574305
-0.058913179 -0.072013117 -0.008213724
-0.056540053 -0.070546374 -0.008525176
-0.055913325 -0.070245512 -0.0085187256
-0.072553784 -0.077359259 -0.0085338727
-0.071927331 -0.077058531 -0.0085274251
-0.071300872 -0.076757804 -0.0085209766
-0.070674412 -0.076457083 -0.0085145291
-0.06991899 -0.076421455 -0.008170953
-0.067542136 -0.074953444 -0.0084822895
-0.06704589 -0.074388497 -0.008812692
-0.066158623 -0.07461632 -0.0081322491
-0.065531902 -0.074315459 -0.0081257978
-0.064905167 -0.074014604 -0.0081193475
-0.064278439 -0.073713742 -0.0081128972
-0.061144806 -0.072209455 -0.0080806427
-0.060651112 -0.071645446 -0.0084113618
-0.060024653 -0.071344718 -0.0084049143
-0.059398197 -0.071043991 -0.0083984658
-0.058637895 -0.07100603 -0.0080548404
-0.058145281 -0.070442542 -0.0083855707
-0.057518829 -0.070141815 -0.0083791232
-0.056892373 -0.069841087 -0.0083726747
-0.056265917 -0.069540359 -0.0083662262
-0.055639457 -0.069239631 -0.0083597787
-0.054877531 -0.069200888 -0.0080161365
-0.073397815 -0.077217266 -0.0080508431
-0.073026612 -0.076386362 -0.0087181786
-0.072400697 -0.076085895 -0.0087117366
-0.071646668 -0.07605014 -0.0083685424
-0.070891984 -0.076014355 -0.008025052
-0.070265524 -0.075713627 -0.0080186045
-0.058496758 -0.069737606 -0.0082331942
-0.057244387 -0.069136404 -0.0082203047
-0.055992011 -0.068535209 -0.0082074134
-0.055365827 -0.068234622 -0.0082009686
-0.054739639 -0.067934021 -0.0081945239
-0.054113451 -0.06763342 -0.0081880791
-0.073996998 -0.075979806 -0.0085722301
-0.073498622 -0.075415142 -0.008902167
-0.072745711 -0.075379126 -0.0085593509
-0.071992159 -0.075343087 -0.0082162395
-0.057596095 -0.068432339 -0.0080680661
-0.056478929 -0.067570351 -0.0083919223
-0.055853277 -0.067270011 -0.0083854832
-0.055227634 -0.06696967 -0.008379044
-0.05460199 -0.066669337 -0.008372603
-0.054111969 -0.066108689 -0.0087026265
-0.074839935 -0.075837992 -0.0080898264
-0.074467972 -0.075009353 -0.008756265
-0.073969811 -0.074445598 -0.0090858378
-0.073217757 -0.074409194 -0.008743397
-0.056830663 -0.06686756 -0.0082397414
-0.056339893 -0.066307068 -0.0085696783
-0.055579912 -0.06626714 -0.0082268678
-0.055089682 -0.065706916 -0.0085568102
-0.054464575 -0.065406837 -0.0085503757
-0.053975038 -0.064847216 -0.0088800378
-0.053350199 -0.064547263 -0.008873607
-0.075935282 -0.075167738 -0.0082807112
-0.075436488 -0.074603915 -0.0086104888
-0.074811652 -0.074303962 -0.0086040581
-0.074186817 -0.074004009 -0.0085976264
-0.073434852 -0.073967427 -0.0082549751
-0.057182096 -0.06616538 -0.0080876909
-0.056691386 -0.065605432 -0.0084175523
-0.05606655 -0.065305486 -0.0084111206
-0.055441715 -0.065005541 -0.0084046889
-0.054816876 -0.064705588 -0.0083982581
-0.054327399 -0.064146504 -0.0087278429
-0.053973734 -0.063329361 -0.0093925847
-0.053485252 -0.062771596 -0.0097213164
-0.05231753 -0.063505784 -0.0083725331
-0.076404169 -0.07419882 -0.0084648393
-0.075779602 -0.073899001 -0.0084584104
-0.075028658 -0.073862389 -0.0081158467
-0.074403815 -0.073562436 -0.008109415
-0.056418009 -0.06460458 -0.0082591278
-0.056062546 -0.063787043 -0.0089242728
-0.055438519 -0.063487478 -0.0089178495
-0.054949407 -0.062929645 -0.0092467852
-0.05459566 -0.0621146 -0.009910224
-0.053972438 -0.061815426 -0.0099038091
-0.053349212 -0.061516248 -0.0098973941
-0.077621438 -0.073268421 -0.0089905411
-0.076746717 -0.07349439 -0.0083128884
-0.076122418 -0.073194705 -0.0083064623
-0.056903303 -0.063645594 -0.0084431153
-0.056547727 -0.062829576 -0.0091075292
-0.056192759 -0.062014967 -0.0097708022
-0.05543533 -0.061973337 -0.0094296867
-0.054812104 -0.061674159 -0.0094232718
-0.054323889 -0.061117828 -0.0097515667
-0.053700935 -0.06081878 -0.0097451545
-0.053077977 -0.060519733 -0.0097387424
-0.078461833 -0.073127039 -0.0085095903
-0.077963017 -0.072565302 -0.0088385604
-0.07733953 -0.07226599 -0.0088321427
-0.076590545 -0.072228737 -0.0084903296
-0.075840913 -0.072191447 -0.0081482232
-0.057387754 -0.062688254 -0.0086267851
-0.057032071 -0.061873764 -0.0092904707
-0.056409109 -0.06157472 -0.0092840595
-0.055786155 -0.061275672 -0.0092776483
-0.055163197 -0.060976624 -0.0092712352
-0.054540243 -0.060677577 -0.009264824
-0.053917281 -0.060378529 -0.0092584128
-0.053294327 -0.060079481 -0.0092519997
-0.052263856 -0.060550842 -0.0082399426
-0.079302214 -0.072985649 -0.0080286395
-0.079051919 -0.071900159 -0.009028146
-0.078428961 -0.071601123 -0.009021733
-0.077806011 -0.071302071 -0.0090153217
-0.077057861 -0.071264431 -0.0086738812
-0.057248417 -0.061433513 -0.008803729
-0.056759369 -0.060877524 -0.0091321487
-0.056136675 -0.060578607 -0.0091257393
-0.055513989 -0.060279686 -0.00911933
-0.054756593 -0.060237326 -0.0087780813
-0.05426861 -0.059681851 -0.0091065122
-0.053510677 -0.059639234 -0.0087652579
-0.052887719 -0.059340186 -0.0087588457
-0.079516523 -0.070937388 -0.0092109982
-0.078894101 -0.070638597 -0.0092045916
-0.07827168 -0.070339806 -0.009198186
-0.077399395 -0.070562772 -0.0085221669
-0.076776445 -0.070263728 -0.0085157556
-0.07615348 -0.069964677 -0.0085093435
-0.075404629 -0.069926463 -0.0081676859
-0.056975625 -0.060437463 -0.0086456155
-0.056352936 -0.060138546 -0.0086392062
-0.055730242 -0.059839625 -0.0086327968
-0.055107556 -0.059540708 -0.0086263875
-0.054619633 -0.058985766 -0.008954742
-0.053997211 -0.058686979 -0.0089483364
-0.05337479 -0.058388188 -0.0089419298
-0.052752364 -0.058089398 -0.0089355232
-0.051858153 -0.05830184 -0.0082592797
-0.080231398 -0.071057394 -0.0083962204
-0.07985656 -0.070236772 -0.0090592494
-0.079234406 -0.069938108 -0.0090528456
-0.078612253 -0.069639444 -0.0090464419
-0.0779901 -0.06934078 -0.0090400381
-0.077242993 -0.069302343 -0.0086990483
-0.076369837 -0.06952443 -0.0080226008
-0.075746879 -0.069225378 -0.0080161886
-0.055458222 -0.058844689 -0.008474824
-0.054970358 -0.058290284 -0.0088031031
-0.054348201 -0.057991624 -0.0087966993
-0.053726047 -0.05769296 -0.0087902965
-0.05310389 -0.0573943 -0.0087838927
-0.052346107 -0.057350736 -0.0084427921
-0.080571271 -0.070356429 -0.0082447557
-0.080196314 -0.06953676 -0.0089076301
-0.079574421 -0.069238223 -0.0089012301
-0.079200633 -0.068420209 -0.0095629729
-0.078579277 -0.068121932 -0.0095565775
-0.077957921 -0.067823656 -0.0095501821
-0.055186428 -0.057850603 -0.0083169872
-0.054698892 -0.057296865 -0.0086451927
-0.054077003 -0.056998327 -0.0086387927
-0.053455111 -0.056699794 -0.0086323917
-0.052833226 -0.05640126 -0.0086259907
-0.052075654 -0.056357291 -0.0082849693
-0.080910861 -0.069656067 -0.0080934213
-0.080659136 -0.068577655 -0.0090902727
-0.08003778 -0.068279371 -0.0090838773
-0.079540223 -0.067721881 -0.0094113331
-0.078919135 -0.067423731 -0.0094049405
-0.07829804 -0.067125581 -0.0093985479
-0.077552363 -0.067086257 -0.0090582957
-0.054914866 -0.05685737 -0.0081592854
-0.054696664 -0.055795867 -0.0091556264
-0.054210171 -0.055243958 -0.0094829109
-0.053319506 -0.055453416 -0.0088088755
-0.052562796 -0.055409078 -0.0084682247
-0.051941171 -0.055110667 -0.0084618265
-0.081496283 -0.068436816 -0.0086111771
-0.0809981 -0.067879252 -0.0089388359
-0.080377012 -0.067581102 -0.0089324433
-0.079755917 -0.067282952 -0.0089260498
-0.079134837 -0.066984802 -0.0089196581
-0.078513749 -0.066686645 -0.0089132655
-0.077892654 -0.066388495 -0.0089068729
-0.077271566 -0.066090345 -0.0089004803
-0.055399369 -0.055909131 -0.0083425706
-0.055046603 -0.055103239 -0.009004226
-0.05456017 -0.054551862 -0.009331435
-0.05407415 -0.054000959 -0.0096583646
-0.053319052 -0.053956069 -0.0093186609
-0.052563313 -0.05391115 -0.0089786667
-0.08183489 -0.067738473 -0.0084599461
-0.08121381 -0.067440324 -0.0084535535
-0.080592714 -0.067142166 -0.0084471609
-0.080095127 -0.066585407 -0.008774749
-0.07959798 -0.066029109 -0.0091020558
-0.078977413 -0.06573122 -0.0090956688
-0.078356862 -0.065433316 -0.0090892809
-0.077984914 -0.064620316 -0.0097494498
-0.076991022 -0.065095291 -0.0087427991
-0.076245092 -0.065055117 -0.0084024118
-0.075498529 -0.065014914 -0.0080617322
-0.055396244 -0.054411203 -0.008852955
-0.055043932 -0.053607624 -0.0095133251
-0.054558124 -0.053057596 -0.009839897
-0.053669285 -0.053264823 -0.0091673201
-0.052914012 -0.053219624 -0.008827406
-0.052293457 -0.052921727 -0.008821019
-0.080434054 -0.06588845 -0.0086235749
-0.079813495 -0.065590553 -0.0086171888
-0.079192929 -0.065292664 -0.0086108018
-0.078944065 -0.064222611 -0.0096044326
-0.078324296 -0.063925095 -0.009598054
-0.077580214 -0.063884497 -0.0092586149
-0.076585799 -0.064358518 -0.0082513336
-0.055611759 -0.05397265 -0.0083680879
-0.055393126 -0.052917115 -0.0093620298
-0.054773364 -0.052619603 -0.0093556521
-0.054153603 -0.05232209 -0.0093492726
-0.053399187 -0.052276522 -0.0090097273
-0.052508973 -0.052483175 -0.008336151
-0.051888417 -0.052185275 -0.008329764
-0.08064957 -0.065449901 -0.0081387078
-0.080152385 -0.064894326 -0.0084661478
-0.079655632 -0.064339235 -0.0087933075
-0.079406373 -0.063271321 -0.0097858561
-0.078787141 -0.062974066 -0.0097794831
-0.0780439 -0.062933087 -0.0094404118
-0.077050924 -0.063405491 -0.0084342249
-0.056094624 -0.053028908 -0.0085508013
-0.055608369 -0.052479122 -0.0088777849
-0.054988604 -0.052181609 -0.0088714054
-0.054368842 -0.0518841 -0.0088650268
-0.053749081 -0.051586587 -0.0088586481
-0.053129323 -0.05128907 -0.0088522695
-0.052509561 -0.050991558 -0.0088458899
-0.080240659 -0.06313096 -0.0093083987
-0.079744719 -0.062577575 -0.0096346401
-0.079125747 -0.062280439 -0.009628268
-0.078382961 -0.062239185 -0.0092892768
-0.077763736 -0.061941929 -0.0092829037
-0.056443367 -0.052338645 -0.0083999187
-0.055957168 -0.051789392 -0.0087268269
-0.055337675 -0.051492006 -0.0087204501
-0.054718174 -0.051194619 -0.0087140743
-0.054232921 -0.050646093 -0.0090407087
-0.053479183 -0.050599851 -0.0087013217
-0.052724801 -0.050553568 -0.0083616441
-0.052105039 -0.050256055 -0.0083552655
-0.081074953 -0.062990606 -0.0088309394
-0.080701478 -0.062181421 -0.00948992
-0.080328636 -0.06137361 -0.010147775
-0.079710461 -0.061076857 -0.010141413
-0.078968883 -0.061035145 -0.0098030735
-0.078226663 -0.060993396 -0.0094644474
-0.07748381 -0.060951609 -0.0091255298
-0.076615699 -0.061165322 -0.0084532052
-0.056305673 -0.05110025 -0.0085759973
-0.05568644 -0.050802991 -0.0085696243
-0.055200983 -0.050254863 -0.0088961804
-0.054582011 -0.04995773 -0.0088898093
-0.053963043 -0.049660597 -0.008883439
-0.05320951 -0.049613956 -0.0085441293
-0.052455336 -0.049567271 -0.00820453
-0.051835839 -0.049269885 -0.0081981532
-0.051216342 -0.048972499 -0.0081917774
-0.081535049 -0.062041178 -0.0090128686
-0.081161506 -0.061233494 -0.0096711311
-0.080666013 -0.060681853 -0.009996661
-0.080048107 -0.060385227 -0.009990301
-0.079430193 -0.060088605 -0.0099839419
-0.078812279 -0.059791978 -0.0099775819
-0.077946775 -0.060004335 -0.0093071312
-0.077204123 -0.059962142 -0.0089682909
-0.076460838 -0.05991992 -0.0086291637
-0.056034911 -0.050114565 -0.0084189251
-0.055549506 -0.049566962 -0.0087454068
-0.054930806 -0.049269959 -0.0087390393
-0.054312102 -0.048972953 -0.0087326709
-0.053693399 -0.048675951 -0.0087263035
-0.053209201 -0.048129197 -0.0090525141
-0.052725419 -0.047582909 -0.0093784472
-0.051837288 -0.047784932 -0.0087071992
-0.081872202 -0.061348546 -0.0088621099
-0.081498519 -0.060541794 -0.0095202206
-0.0810031 -0.059990685 -0.0098456768
-0.080385454 -0.059694182 -0.0098393196
-0.080013521 -0.058889873 -0.010495758
-0.079396389 -0.058593623 -0.010489406
-0.078408957 -0.059058666 -0.0094884206
-0.077791043 -0.05876204 -0.0094820606
-0.076800302 -0.059227895 -0.0084785046
-0.076056838 -0.059185356 -0.008139167
-0.056383085 -0.049426723 -0.0082683563
-0.055897739 -0.048879649 -0.0085947625
-0.0552793 -0.04858277 -0.0085883979
-0.05466086 -0.048285894 -0.0085820323
-0.054042425 -0.047989015 -0.0085756676
-0.053692471 -0.047193654 -0.0092340214
-0.053208891 -0.046648227 -0.0095595997
-0.052456647 -0.046600401 -0.0092213023
-0.051433455 -0.047050681 -0.008217412
-0.08208698 -0.060911488 -0.0083788978
-0.081713118 -0.060105108 -0.0090374202
-0.081217602 -0.059554186 -0.0093630822
-0.080599956 -0.059257686 -0.009356725
-0.080227837 -0.058453742 -0.010013574
-0.07961072 -0.058157496 -0.010007221
-0.078993589 -0.057861254 -0.01000087
-0.078376472 -0.057565007 -0.0099945171
-0.077387735 -0.058028731 -0.0089929001
-0.076769821 -0.057732105 -0.0089865401
-0.055494081 -0.048145715 -0.0081051849
-0.055009324 -0.04759942 -0.0084315222
-0.05452498 -0.047053594 -0.008757581
-0.054308668 -0.046011388 -0.0097467955
-0.053691544 -0.045715142 -0.009740443
-0.052805748 -0.045915231 -0.0090706469
-0.051918447 -0.046115663 -0.0083997091
-0.081927717 -0.059668422 -0.0085546188
-0.081676409 -0.058610111 -0.0095440932
-0.081059285 -0.058313861 -0.0095377406
-0.080687098 -0.057511412 -0.010193877
-0.080070496 -0.057215415 -0.010187531
-0.0794539 -0.056919418 -0.010181184
-0.078590788 -0.057128876 -0.0095123341
-0.077973671 -0.05683263 -0.0095059816
-0.077356547 -0.056536384 -0.00949963
-0.076366507 -0.056998793 -0.0084973797
-0.05535749 -0.046913531 -0.0082811406
-0.055273395 -0.045623463 -0.0096024591
-0.054656535 -0.045327343 -0.0095961094
-0.053905863 -0.045279015 -0.0092582591
-0.053020258 -0.045478731 -0.0085880514
-0.052267928 -0.045430403 -0.0082493396
-0.082142316 -0.059231739 -0.0080718184
-0.081890732 -0.058173981 -0.0090619083
-0.081395775 -0.057624586 -0.0093871439
-0.081023455 -0.056823056 -0.01004313
-0.08040712 -0.056527186 -0.010036786
-0.079790786 -0.05623132 -0.010030442
-0.079051442 -0.056187667 -0.0096930638
-0.078311473 -0.05614398 -0.0093553979
-0.07769461 -0.055847861 -0.00934905
-0.076953754 -0.055804007 -0.0090110935
-0.075963199 -0.056265485 -0.0080082184
-0.056104489 -0.045483641 -0.009126829
-0.055620708 -0.044939876 -0.0094518987
-0.054870769 -0.044891402 -0.0091141304
-0.054253906 -0.044595279 -0.0091077816
-0.053503066 -0.044546641 -0.0087697227
-0.052751582 -0.044497959 -0.0084313769
-0.082105055 -0.057737853 -0.0085797245
-0.081853844 -0.056683354 -0.0095679034
-0.081237502 -0.056387484 -0.009561561
-0.080621168 -0.056091618 -0.0095552169
-0.080127381 -0.055543803 -0.0098798275
-0.079388499 -0.055499878 -0.0095425295
-0.078772165 -0.055204011 -0.0095361853
-0.078155823 -0.054908141 -0.0095298411
-0.077291988 -0.0551158 -0.0088607203
-0.076675124 -0.054819681 -0.0088543724
-0.056803007 -0.045591746 -0.0083192978
-0.05658406 -0.04455274 -0.0093078101
-0.055967726 -0.044256866 -0.0093014659
-0.05521825 -0.044208124 -0.0089637777
-0.05446814 -0.044159342 -0.0086258017
-0.05371739 -0.04411051 -0.0082875388
-0.053100266 -0.043814268 -0.0082811872
-0.082562715 -0.056796126 -0.0087612476
-0.082067892 -0.056247782 -0.0090863341
-0.08145155 -0.055951916 -0.00907999
-0.080957413 -0.05540416 -0.0094048046
-0.080463693 -0.054856874 -0.0097293416
-0.07997039 -0.054310046 -0.010053603
-0.079354845 -0.054014556 -0.010047268
-0.078739285 -0.053719062 -0.010040931
-0.077877045 -0.053925447 -0.0093730995
-0.077260971 -0.053629704 -0.0093667572
-0.076520868 -0.053584963 -0.0090292403
-0.075655632 -0.053791497 -0.0083596949
-0.057414446 -0.044413034 -0.0088325841
-0.056798112 -0.044117164 -0.0088262409
-0.056181777 -0.043821298 -0.0088198967
-0.055565443 -0.043525428 -0.0088135526
-0.054815795 -0.043476373 -0.0084756576
-0.053582601 -0.042884383 -0.0084629636
-0.082898274 -0.056108084 -0.0086111091
-0.082403526 -0.055560261 -0.0089361221
-0.081787452 -0.055264518 -0.0089297807
-0.081293374 -0.054717287 -0.0092545198
-0.081043735 -0.053668868 -0.010239745
-0.080428705 -0.053373627 -0.010233414
-0.079936042 -0.052828129 -0.01055705
-0.079321273 -0.052533012 -0.010550722
-0.078583613 -0.052487902 -0.010214423
-0.077721968 -0.052693062 -0.0095473053
-0.076982692 -0.052647963 -0.0092101507
-0.076242782 -0.052602828 -0.0088727111
-0.057628497 -0.043977462 -0.0083510149
-0.057144482 -0.043434795 -0.0086761378
-0.056528408 -0.043139052 -0.0086697973
-0.055779491 -0.043089855 -0.0083319834
-0.05393048 -0.042202253 -0.0083129527
-0.10182906 -0.064037457 -0.0089825261
-0.10144003 -0.063231848 -0.0096377414
-0.10082474 -0.062936485 -0.0096314074
-0.10009558 -0.062895752 -0.0092944335
-0.083233558 -0.055420615 -0.0084610973
-0.082617484 -0.055124875 -0.0084547568
-0.082244597 -0.05432649 -0.0091106985
-0.081872351 -0.05352946 -0.0097655272
-0.081500731 -0.052733783 -0.010419245
-0.081008039 -0.052189019 -0.010742528
-0.080393791 -0.051894154 -0.010736205
-0.079657212 -0.051848814 -0.01040027
-0.078920014 -0.051803432 -0.010064051
-0.078182183 -0.051758014 -0.0097275451
-0.077443726 -0.051712558 -0.0093907546
-0.076580741 -0.051917147 -0.0087226527
-0.075840667 -0.051871702 -0.0083850054
-0.054278068 -0.041520696 -0.0081630675
-0.053661995 -0.041224953 -0.0081567271
-0.10316189 -0.064449005 -0.0081826476
-0.10265873 -0.063897878 -0.0085077034
-0.10215601 -0.063347213 -0.0088324845
-0.10165372 -0.062797017 -0.0091569889
-0.10103842 -0.062501654 -0.0091506559
-0.10053681 -0.061952051 -0.0094748875
-0.099693812 -0.062165245 -0.0088071413
-0.092805743 -0.059168 -0.0084062899
-0.09242437 -0.058366518 -0.009061995
-0.083073929 -0.054186966 -0.0086360779
-0.082458384 -0.053891476 -0.008629743
-0.082328662 -0.052594498 -0.0099454299
-0.081835613 -0.05204979 -0.010268914
-0.08134298 -0.051505543 -0.010592122
-0.080728993 -0.051210806 -0.010585803
-0.080115005 -0.050916061 -0.010579483
-0.079256117 -0.05111954 -0.0099138049
-0.078641616 -0.050824549 -0.0099074803
-0.077780746 -0.051028125 -0.0092406673
-0.077042125 -0.05098236 -0.0089036692
-0.076550692 -0.050437644 -0.009228006
-0.055241175 -0.041135337 -0.0080196494
-0.054625362 -0.040839721 -0.0080133118
-0.054009553 -0.040544104 -0.0080069732
-0.053393736 -0.040248487 -0.0080006346
-0.10236979 -0.062912196 -0.0083515281
-0.1018674 -0.062362187 -0.0086762374
-0.10125212 -0.06206682 -0.0086699044
-0.1007504 -0.061517403 -0.00899434
-0.10002153 -0.061476085 -0.0086572384
-0.093752079 -0.058775309 -0.0082628289
-0.093370065 -0.057974506 -0.0089183766
-0.092871919 -0.057427056 -0.00924257
-0.092140004 -0.057384025 -0.0089057162
-0.083287701 -0.053751949 -0.0081551224
-0.082914576 -0.052955408 -0.0088107614
-0.082663186 -0.051910561 -0.0097952988
-0.082291365 -0.051117264 -0.010448162
-0.081798963 -0.050573874 -0.010771021
-0.081063911 -0.050528031 -0.010435527
-0.080450185 -0.050233413 -0.010429211
-0.079836465 -0.049938802 -0.010422894
-0.079100266 -0.049892671 -0.01008711
-0.078486279 -0.049597926 -0.01008079
-0.077626012 -0.049800288 -0.0094146896
-0.07688795 -0.049754042 -0.0090780519
-0.076149262 -0.049707755 -0.0087411283
-0.10085051 -0.061336622 -0.008182819
-0.094314955 -0.057582825 -0.0087748813
-0.093583658 -0.057539858 -0.0084378291
-0.093085416 -0.056992594 -0.0087622264
-0.092470653 -0.05669748 -0.0087558981
-0.091855891 -0.056402363 -0.0087495707
-0.091358587 -0.055855811 -0.009073698
-0.090508513 -0.056063656 -0.0084061772
-0.083128177 -0.052520759 -0.0083302138
-0.082876511 -0.051476467 -0.0093153613
-0.082625479 -0.05043482 -0.010298007
-0.082012013 -0.050140332 -0.010291693
-0.081398554 -0.049845837 -0.010285379
-0.080906734 -0.049303215 -0.010608171
-0.080049604 -0.049505074 -0.0099433633
-0.079435878 -0.049210455 -0.0099370461
-0.078822151 -0.048915841 -0.0099307289
-0.078085534 -0.048869275 -0.0095947366
-0.077471539 -0.048574537 -0.0095884176
-0.076486684 -0.049024463 -0.00859138
-0.056814112 -0.039580755 -0.0083888974
-0.056331672 -0.039041333 -0.0087131765
-0.055717163 -0.038746342 -0.0087068519
-0.055102658 -0.038451351 -0.0087005273
-0.05435504 -0.038400292 -0.0083635869
-0.095757999 -0.057738595 -0.0083071925
-0.095143236 -0.057443477 -0.0083008651
-0.094528466 -0.05714836 -0.0082945377
-0.093298927 -0.056558132 -0.0082818819
-0.092684157 -0.056263015 -0.0082755545
-0.092303537 -0.055465359 -0.0089302575
-0.091689296 -0.055170495 -0.0089239357
-0.09107504 -0.054875627 -0.0089176139
-0.090225093 -0.055082548 -0.008250244
-0.083331384 -0.050544426 -0.0094954167
-0.082717657 -0.050249808 -0.0094890995
-0.082225069 -0.049706787 -0.0098123653
-0.081732899 -0.049164224 -0.010135358
-0.081241153 -0.048622116 -0.010458076
-0.080506489 -0.048575491 -0.010122735
-0.08001525 -0.048033632 -0.01044546
-0.07915774 -0.048234329 -0.0097807944
-0.078544267 -0.047939837 -0.00977448
-0.077930801 -0.047645345 -0.0097681656
-0.076947361 -0.04809371 -0.0087722018
-0.076333113 -0.047798846 -0.00876588
-0.057159595 -0.038902048 -0.0082393605
-0.056677211 -0.03836314 -0.008563567
-0.055930581 -0.038312063 -0.0082267113
-0.055316072 -0.038017072 -0.0082203867
-0.054701563 -0.037722081 -0.0082140621
-0.054220222 -0.037183672 -0.0085382788
-0.093014434 -0.055577237 -0.008126067
-0.092516862 -0.055031266 -0.0084503209
-0.091902621 -0.054736398 -0.0084439991
-0.091405727 -0.054191012 -0.0087679802
-0.090791732 -0.053896274 -0.0087616611
-0.090059876 -0.053851798 -0.0084250318
-0.083917402 -0.050903141 -0.0083618099
-0.083544523 -0.050110698 -0.0090158861
-0.082930803 -0.049816083 -0.009009569
-0.082438126 -0.049273241 -0.0093330378
-0.081945859 -0.048730861 -0.0096562328
-0.081454024 -0.048188943 -0.0099791549
-0.080841072 -0.047894698 -0.0099728452
-0.080349907 -0.047353361 -0.010295497
-0.079615183 -0.047306214 -0.0099602276
-0.079002231 -0.047011971 -0.0099539189
-0.07814385 -0.047211803 -0.0092888381
-0.077530392 -0.046917308 -0.0092825238
-0.076793537 -0.046869919 -0.0089464001
-0.057636444 -0.037980262 -0.008420404
-0.057154272 -0.037442204 -0.0087442584
-0.056408469 -0.037390776 -0.0084077651
-0.05566204 -0.037339315 -0.0080709858
-0.055180497 -0.036801297 -0.0083951261
-0.05456651 -0.036506556 -0.0083888061
-0.053952526 -0.036211815 -0.0083824871
-0.091004968 -0.053462364 -0.0082819285
-0.09039098 -0.053167623 -0.0082756076
-0.084371395 -0.049971588 -0.0085426718
-0.084118694 -0.048932731 -0.0095254676
-0.083385244 -0.048886236 -0.0091897305
-0.082772031 -0.048591871 -0.0091834189
-0.082158826 -0.048297502 -0.0091771074
-0.081666894 -0.047755763 -0.0095002316
-0.081175379 -0.047214482 -0.0098230829
-0.080805764 -0.046427161 -0.010474268
-0.080193587 -0.046133295 -0.010467967
-0.079459421 -0.046085671 -0.010133055
-0.078602158 -0.046284549 -0.0094686877
-0.077989206 -0.045990307 -0.0094623789
-0.077129975 -0.046189275 -0.0087968819
-0.075655296 -0.046093836 -0.0081239389
-0.058112487 -0.037060041 -0.0086011412
-0.057499025 -0.036765546 -0.0085948268
-0.056753684 -0.036713861 -0.0082584117
-0.055045154 -0.035587583 -0.0085695693
-0.054431688 -0.035293087 -0.008563255
-0.093176723 -0.053662486 -0.0081515778
-0.092679709 -0.05311802 -0.0084754098
-0.085064299 -0.048546195 -0.0093822004
-0.084451608 -0.04825208 -0.0093758944
-0.083718613 -0.048205316 -0.0090402365
-0.082984999 -0.048158508 -0.0087042945
-0.082371794 -0.047864139 -0.0086979829
-0.081879765 -0.047322586 -0.0090213101
-0.081388161 -0.046781488 -0.0093443636
-0.081018366 -0.045994535 -0.0099959522
-0.080406196 -0.045700666 -0.0099896519
-0.079794019 -0.045406796 -0.0099833505
-0.079059675 -0.045358866 -0.0096482337
-0.078447253 -0.045064874 -0.0096419295
-0.07746613 -0.045509204 -0.0086474903
-0.055522986 -0.034670159 -0.008750028
-0.054644741 -0.034859546 -0.0080839284
-0.093125716 -0.052185778 -0.0086559467
-0.092512771 -0.051891532 -0.0086496379
-0.085277088 -0.048113205 -0.0089034801
-0.084784247 -0.047571998 -0.009226447
-0.084171824 -0.047278009 -0.0092201447
-0.083318539 -0.047477894 -0.0085550053
-0.082584754 -0.047430784 -0.0082188575
-0.082092643 -0.046889409 -0.0085423868
-0.081722096 -0.046102032 -0.0091949292
-0.081352174 -0.045315985 -0.0098463697
-0.080740258 -0.045022234 -0.0098400721
-0.080128349 -0.044728488 -0.0098337736
-0.079516433 -0.044434745 -0.009827476
-0.078904517 -0.044140998 -0.0098211775
-0.078047514 -0.044338066 -0.0091571081
-0.077189058 -0.044535469 -0.0084919157
-0.05573586 -0.034236979 -0.0082711047
-0.093338594 -0.051752597 -0.0081770252
-0.092725642 -0.051458355 -0.0081707165
-0.09211269 -0.051164113 -0.0081644068
-0.084996939 -0.04713919 -0.0087479297
-0.084384516 -0.046845194 -0.0087416256
-0.083772078 -0.046551201 -0.0087353233
-0.083039105 -0.046503738 -0.008399535
-0.082426421 -0.046209618 -0.0083932299
-0.081934795 -0.04566922 -0.0087164119
-0.081564687 -0.044883538 -0.0093682567
-0.080952771 -0.044589791 -0.0093619581
-0.080340855 -0.044296045 -0.0093556596
-0.079972416 -0.04351218 -0.010006416
-0.079239078 -0.043463517 -0.0096717319
-0.078505121 -0.043414805 -0.0093367649
-0.077770546 -0.04336606 -0.0090015167
-0.076788977 -0.043808047 -0.0080066854
-0.056825135 -0.03361547 -0.0084579661
-0.056080777 -0.033562537 -0.0081220614
-0.092442237 -0.050482515 -0.0080154082
-0.084717043 -0.046165995 -0.0085925106
-0.084104866 -0.045872126 -0.0085862093
-0.08226835 -0.044990517 -0.0085673062
-0.081777208 -0.044451091 -0.0088901427
-0.081407547 -0.043667097 -0.0095412908
-0.080796152 -0.0433736 -0.0095349979
-0.080306247 -0.042835534 -0.0098570175
-0.079695098 -0.04254216 -0.0098507274
-0.078839846 -0.042737629 -0.0091875242
-0.078105718 -0.042688619 -0.0088523533
-0.077370971 -0.042639561 -0.0085168993
-0.076758802 -0.042345691 -0.008510598
-0.057781473 -0.033235729 -0.0083152708
-0.0571693 -0.032941855 -0.0083089694
-0.085049286 -0.045487374 -0.0084435195
-0.08443737 -0.045193627 -0.0084372219
-0.083825454 -0.044899885 -0.0084309233
-0.083093122 -0.044851761 -0.0080952924
-0.082601629 -0.044312388 -0.0084183272
-0.082231276 -0.043528516 -0.009069873
-0.081861548 -0.042745959 -0.0097203217
-0.081129633 -0.042697009 -0.0093857981
-0.080639787 -0.042159457 -0.0097077452
-0.07990735 -0.042110261 -0.0093732188
-0.079174295 -0.042061023 -0.0090384083
-0.078440614 -0.042011745 -0.0087033166
-0.077706322 -0.041962426 -0.0083679408
-0.077094406 -0.04166868 -0.0083616432
-0.076359235 -0.041619193 -0.0080259815
-0.058736999 -0.032856308 -0.0081726965
-0.058386777 -0.032082092 -0.00882445
-0.057775378 -0.031788595 -0.0088181561
-0.082934633 -0.043634836 -0.008269473
-0.082564153 -0.042851862 -0.0089208698
-0.082073711 -0.042314243 -0.0092430133
-0.081462823 -0.042020991 -0.009236726
-0.080851942 -0.04172774 -0.0092304386
-0.080119587 -0.041678365 -0.0088957092
-0.079508454 -0.041384988 -0.008889419
-0.078897312 -0.041091613 -0.0088831289
-0.078286171 -0.040798239 -0.0088768387
-0.077675037 -0.040504865 -0.0088705486
-0.059340842 -0.03170364 -0.0086818403
-0.058729701 -0.031410266 -0.0086755492
-0.058118563 -0.03111689 -0.008669259
-0.083267346 -0.04295785 -0.0081207445
-0.083016992 -0.041931797 -0.0091003478
-0.082526773 -0.04139502 -0.0094221439
-0.081674978 -0.041589275 -0.0087594176
-0.081064105 -0.041296024 -0.0087531302
-0.080453217 -0.041002773 -0.0087468419
-0.07996387 -0.04046616 -0.0090689231
-0.079353243 -0.040173035 -0.0090626385
-0.078742616 -0.039879907 -0.0090563539
-0.078131996 -0.039586779 -0.0090500675
-0.077398807 -0.039536517 -0.0087154042
-0.059683219 -0.031032251 -0.0085330633
-0.059202623 -0.03049984 -0.0088552339
-0.058461457 -0.030445751 -0.0085204877
-0.083349116 -0.04125667 -0.0089515196
-0.08273875 -0.040963665 -0.0089452378
-0.082128383 -0.040670663 -0.0089389551
-0.081518009 -0.040377658 -0.0089326734
-0.080786563 -0.04032775 -0.0085981004
-0.080175936 -0.040034626 -0.0085918158
-0.079808407 -0.039255999 -0.0092418455
-0.079198293 -0.03896312 -0.0092355656
-0.07846617 -0.038912639 -0.0089012617
-0.077733435 -0.038862117 -0.0085666757
-0.077000074 -0.038811553 -0.0082318084
-0.060635936 -0.030654559 -0.0083906977
-0.060155135 -0.030122528 -0.0087127928
-0.059544768 -0.029829524 -0.0087065091
-0.058804061 -0.029775176 -0.0083718421
-0.058062728 -0.029720783 -0.0080368929
-0.084051751 -0.041361853 -0.0081524188
-0.083441123 -0.041068725 -0.0081461342
-0.082950719 -0.04053231 -0.0084683327
-0.082340352 -0.040239308 -0.0084620491
-0.081729986 -0.039946303 -0.0084557673
-0.081119619 -0.039653301 -0.0084494846
-0.080872402 -0.038633142 -0.0094270259
-0.080262795 -0.038340509 -0.0094207516
-0.079653196 -0.038047876 -0.0094144763
-0.078921892 -0.037997052 -0.0090805292
-0.078312032 -0.037704293 -0.0090742521
-0.077457413 -0.037895277 -0.0084117912
-0.062198218 -0.030570187 -0.0082547329
-0.061587848 -0.030277183 -0.0082484502
-0.061106849 -0.029745534 -0.0085704699
-0.060626257 -0.029214336 -0.0088922186
-0.060016405 -0.02892158 -0.0088859415
-0.059146378 -0.029105168 -0.0082233213
-0.082182959 -0.039029848 -0.0086354092
-0.0818142 -0.038253047 -0.0092845829
-0.081204861 -0.037960537 -0.0092783105
-0.080716431 -0.037426554 -0.0095993569
-0.080228411 -0.036893021 -0.0099201314
-0.079498261 -0.036841776 -0.0095868176
-0.078523837 -0.037273303 -0.0085977474
-0.077913977 -0.036980543 -0.0085914703
-0.077304125 -0.036687791 -0.0085851932
-0.063149072 -0.030193005 -0.0081126029
-0.062538967 -0.029900124 -0.0081063239
-0.061928853 -0.029607244 -0.008100044
-0.061447911 -0.029076103 -0.0084219901
-0.060967378 -0.028545408 -0.0087436661
-0.060487244 -0.028015159 -0.0090650711
-0.05974818 -0.02796014 -0.0087311175
-0.082755215 -0.037873272 -0.0091422591
-0.082266346 -0.03733955 -0.0094632274
-0.081657507 -0.037047282 -0.0094569605
-0.081048682 -0.036755022 -0.0094506945
-0.080439851 -0.036462754 -0.0094444277
-0.079831026 -0.03617049 -0.0094381608
-0.07897912 -0.036359861 -0.0087771192
-0.078369774 -0.036067352 -0.0087708486
-0.077760428 -0.035774842 -0.0087645762
-0.077395707 -0.035001427 -0.0094130952
-0.076541752 -0.035189819 -0.0087520322
-0.063617475 -0.029285135 -0.0082924599
-0.063007884 -0.0289925 -0.0082861846
-0.062398281 -0.028699867 -0.0082799103
-0.061917551 -0.028169554 -0.00860151
-0.061437223 -0.027639685 -0.0089228405
-0.061215293 -0.026636789 -0.009897734
-0.060219053 -0.02705491 -0.0089103021
-0.093699485 -0.043193392 -0.0081235999
-0.093089879 -0.04290076 -0.0081173256
-0.083575837 -0.037735209 -0.0086726248
-0.083086617 -0.03720155 -0.0089937896
-0.0825978 -0.036668334 -0.0093146851
-0.081989229 -0.036376189 -0.0093084211
-0.08138065 -0.036084048 -0.009302157
-0.080651298 -0.036032487 -0.008968723
-0.080163509 -0.035499763 -0.0092896288
-0.079433635 -0.035447955 -0.0089561902
-0.078824803 -0.035155691 -0.0089499233
-0.077972054 -0.035344213 -0.008288472
-0.077607147 -0.03457116 -0.0089373915
-0.07675337 -0.03475919 -0.0082759289
-0.076144025 -0.03446668 -0.0082696564
-0.064694181 -0.028671179 -0.0084782811
-0.064085096 -0.02837879 -0.0084720124
-0.063476011 -0.028086403 -0.0084657427
-0.062995225 -0.027556792 -0.008786995
-0.062386397 -0.027264526 -0.0087807281
-0.062034879 -0.026498903 -0.0094286902
-0.061426558 -0.026206885 -0.009422428
-0.06081824 -0.025914863 -0.0094161676
-0.083906889 -0.03706355 -0.0085243508
-0.08353731 -0.036289703 -0.0091725281
-0.082928985 -0.035997681 -0.0091662668
-0.08232066 -0.035705663 -0.0091600055
-0.081592008 -0.035653964 -0.0088266525
-0.080983438 -0.035361819 -0.0088203885
-0.080374859 -0.035069678 -0.0088141244
-0.079766288 -0.034777533 -0.0088078603
-0.079157718 -0.034485392 -0.0088015962
-0.07647834 -0.033796109 -0.0081214905
-0.065641992 -0.028295588 -0.0083363559
-0.065160498 -0.027766112 -0.0086575281
-0.064806804 -0.02700039 -0.0093053207
-0.064071096 -0.026945058 -0.008972168
-0.063462779 -0.026653038 -0.0089659067
-0.062854461 -0.026361018 -0.0089596463
-0.062502839 -0.025596796 -0.0096069137
-0.061766483 -0.025540899 -0.0092740282
-0.060771354 -0.025957463 -0.0082862247
-0.084237665 -0.036392447 -0.0083762035
-0.083748572 -0.035859797 -0.0086972229
-0.083140254 -0.035567775 -0.0086909616
-0.082531936 -0.035275757 -0.0086847004
-0.081923611 -0.034983739 -0.0086784391
-0.081315294 -0.034691714 -0.0086721787
-0.080706976 -0.034399696 -0.0086659165
-0.080098659 -0.034107678 -0.0086596552
-0.079490341 -0.033815656 -0.0086533939
-0.07876049 -0.033763163 -0.0083198277
-0.065980427 -0.027628168 -0.0081882868
-0.065626048 -0.02686256 -0.0088364733
-0.065145165 -0.026334351 -0.0091570308
-0.064537361 -0.026042575 -0.0091507751
-0.06392955 -0.025750801 -0.0091445185
-0.063577324 -0.024987729 -0.0097910902
-0.062970027 -0.024696199 -0.00978484
-0.062106121 -0.024875475 -0.0091257514
-0.08456815 -0.035721913 -0.0082281791
-0.08395984 -0.035429891 -0.0082219178
-0.083351515 -0.035137869 -0.0082156565
-0.082743205 -0.034845851 -0.0082093952
-0.08213488 -0.03455383 -0.0082031339
-0.081526555 -0.034261812 -0.0081968727
-0.08103881 -0.03373028 -0.0085178325
-0.080430746 -0.033438377 -0.0085115749
-0.079943664 -0.032907415 -0.0088322684
-0.079214625 -0.032854583 -0.008499058
-0.078484967 -0.032801714 -0.0081655663
-0.075081199 -0.03057321 -0.008782221
-0.074473388 -0.030281436 -0.0087759644
-0.073865578 -0.02998966 -0.0087697087
-0.066445284 -0.026724733 -0.008367626
-0.065964065 -0.026196582 -0.00868838
-0.065610133 -0.025433138 -0.0093353335
-0.065002829 -0.025141606 -0.0093290824
-0.064395532 -0.024850074 -0.0093228323
-0.063915774 -0.024323372 -0.0096427836
-0.063180938 -0.024267014 -0.0093103303
-0.062573634 -0.023975482 -0.0093040802
-0.084290311 -0.034760039 -0.00807402
-0.083074182 -0.034176242 -0.0080615031
-0.082466118 -0.033884346 -0.0080552446
-0.081858054 -0.033592448 -0.0080489861
-0.081370376 -0.033061415 -0.0083698742
-0.080883101 -0.032530833 -0.0086904923
-0.080275543 -0.032239176 -0.0086842394
-0.079546943 -0.032186091 -0.0083511053
-0.07893914 -0.031894319 -0.0083448496
-0.078209668 -0.031841062 -0.0080114342
-0.075900093 -0.030435439 -0.0083135702
-0.075292282 -0.030143665 -0.0083073135
-0.074930541 -0.029376913 -0.0089545865
-0.074323244 -0.029085383 -0.0089483354
-0.074208863 -0.027847258 -0.010245882
-0.07360258 -0.027556214 -0.010239642
-0.072501346 -0.028210791 -0.0089295832
-0.071894042 -0.027919261 -0.0089233322
-0.071162231 -0.027864385 -0.0085904384
-0.066782959 -0.026058814 -0.0082197301
-0.066681117 -0.024824718 -0.0095195826
-0.066074327 -0.024533432 -0.0095133372
-0.065467529 -0.024242144 -0.0095070926
-0.064860739 -0.023950858 -0.0095008472
-0.064253949 -0.02365957 -0.0094946008
-0.063519552 -0.023602959 -0.0091622258
-0.062784545 -0.023546297 -0.0088295704
-0.081701651 -0.03239312 -0.0082220379
-0.08121445 -0.031863037 -0.0085425852
-0.080727644 -0.031333398 -0.0088628624
-0.080120608 -0.031041989 -0.0088566151
-0.079634458 -0.030512914 -0.0091766268
-0.079148732 -0.029984284 -0.0094963722
-0.078420885 -0.02993034 -0.0091641359
-0.077570647 -0.030113852 -0.0085050799
-0.076841228 -0.030059896 -0.008172011
-0.076233663 -0.029768243 -0.0081657581
-0.075748749 -0.02923926 -0.0084863277
-0.075141452 -0.02894773 -0.0084800776
-0.0750257 -0.027709834 -0.0097784083
-0.074542306 -0.027182816 -0.010097633
-0.07381314 -0.027127748 -0.0097659277
-0.073206857 -0.026836704 -0.0097596869
-0.072229013 -0.027253676 -0.0087753888
-0.071621969 -0.026962267 -0.0087691415
-0.071014926 -0.026670858 -0.0087628923
-0.070407875 -0.026379449 -0.008756645
-0.069675758 -0.026323952 -0.0084238201
-0.068943016 -0.026268408 -0.0080907177
-0.068335466 -0.025976755 -0.0080844639
-0.067979701 -0.025213813 -0.0087316521
-0.067624524 -0.02445215 -0.0093777571
-0.067144021 -0.023926273 -0.0096972836
-0.066537738 -0.023635231 -0.0096910438
