# .PCD v0.7 - Point Cloud Data file format
VERSION 0.7
FIELDS x y z
SIZE 4 4 4
TYPE F F F
COUNT 1 1 1
WIDTH 1200
HEIGHT 1
VIEWPOINT 0 0 0 1 0 0 0
POINTS 1200
DATA ascii
-0.070659466 -0.0133147 -0.0083756931
-0.071270794 -0.013412636 -0.008077167
-0.015480777 0.013588937 -0.0080496483
-0.01578062 0.012914198 -0.0088127675
-0.016227232 0.012532836 -0.0090441229
-0.016673528 0.012151743 -0.0092753144
-0.017193552 0.011916673 -0.0092413416
-0.017639346 0.011535934 -0.0094723813
-0.018233603 0.011446532 -0.009173396
-0.018753627 0.011211462 -0.0091394233
-0.019124139 0.010685657 -0.00963536
-0.019643795 0.010450754 -0.0096014105
-0.020163452 0.01021585 -0.0095674628
-0.020683108 0.0099809468 -0.0095335143
-0.021202765 0.0097460421 -0.0094995648
-0.021798072 0.0096560381 -0.0092006959
-0.022317912 0.0094210515 -0.0091667343
-0.022837752 0.0091860648 -0.0091327745
-0.023357594 0.0089510772 -0.0090988139
-0.024183528 0.0092953816 -0.008003097
-0.047631275 -0.0034507392 -0.009587721
-0.048149645 -0.0036850616 -0.0095538562
-0.048838057 -0.0036397008 -0.0089913122
-0.049356796 -0.0038741895 -0.0089574242
-0.049875535 -0.0041086776 -0.0089235352
-0.050394271 -0.004343166 -0.0088896463
-0.050827224 -0.0047172136 -0.009120238
-0.051345777 -0.0049516191 -0.0090863621
-0.051950481 -0.0050466307 -0.0087879812
-0.052555613 -0.0051417099 -0.008489388
-0.053161178 -0.0052368562 -0.0081905844
-0.053593457 -0.005610852 -0.0084215868
-0.053938549 -0.0061236462 -0.0089169787
-0.054370094 -0.0064969324 -0.0091474801
-0.054801337 -0.006869955 -0.0093778186
-0.055319525 -0.0071041952 -0.0093439659
-0.056188066 -0.0067837085 -0.0082520833
-0.056706987 -0.0070182802 -0.0082181832
-0.057225905 -0.0072528515 -0.0081842821
-0.057744827 -0.0074874223 -0.008150382
-0.058782671 -0.0079565654 -0.0080825808
-0.060769022 -0.0090329321 -0.0082118744
-0.061287757 -0.0092674205 -0.0081779854
-0.061627287 -0.0097774491 -0.0086733745
-0.062145658 -0.010011771 -0.0086395098
-0.062753968 -0.010108539 -0.0083410759
-0.063182399 -0.010480416 -0.0085717803
-0.063700773 -0.010714739 -0.0085379155
-0.06421914 -0.010949061 -0.0085040508
-0.064737514 -0.011183384 -0.008470186
-0.06534674 -0.011280566 -0.0081716925
-0.065865293 -0.011514971 -0.0081378166
-0.066383854 -0.011749377 -0.0081039388
-0.066902399 -0.011983782 -0.0080700628
-0.067237847 -0.01249171 -0.0085653532
-0.067756027 -0.012725949 -0.0085314997
-0.068274215 -0.012960189 -0.008497647
-0.068700403 -0.013330797 -0.0087281344
-0.069218397 -0.013564955 -0.008694293
-0.069736406 -0.013799111 -0.0086604515
-0.070439592 -0.013760932 -0.0080976756
-0.014966157 0.012555328 -0.008833088
-0.0154129 0.012174228 -0.009064354
-0.015932925 0.011939159 -0.0090303812
-0.016452949 0.011704088 -0.0089964084
-0.016972974 0.011469018 -0.0089624356
-0.017418848 0.011088437 -0.0091935741
-0.017864404 0.010708127 -0.0094245495
-0.018235283 0.010183051 -0.0099199321
-0.018680079 0.0098034646 -0.010150405
-0.019199185 0.0095688105 -0.010116492
-0.019868063 0.0096236235 -0.0095535498
-0.020462686 0.0095336083 -0.0092548057
-0.020982344 0.0092987046 -0.0092208562
-0.021577574 0.0092085423 -0.0089218896
-0.022097414 0.0089735547 -0.008887928
-0.022617254 0.0087385671 -0.0088539673
-0.023289509 0.0087928697 -0.0082893316
-0.047411401 -0.0038969708 -0.0093097016
-0.047929768 -0.0041312934 -0.0092758369
-0.048448138 -0.004365616 -0.009241973
-0.049051609 -0.0044603869 -0.0089437515
-0.049484883 -0.0048342608 -0.0091742426
-0.050003253 -0.0050685834 -0.0091403788
-0.050521627 -0.005302906 -0.009106514
-0.051125824 -0.0053980085 -0.0088082459
-0.05173045 -0.005493178 -0.0085097654
-0.052249186 -0.0057276664 -0.0084758764
-0.052854426 -0.0058229859 -0.0081771733
-0.053286664 -0.0061966428 -0.0084080994
-0.053718593 -0.0065700356 -0.0086388616
-0.05406335 -0.007081789 -0.0091337496
-0.054581538 -0.0073160292 -0.009099897
-0.055099729 -0.0075502684 -0.0090660444
-0.055880353 -0.0073690843 -0.0082386564
-0.056399088 -0.0076035727 -0.0082047684
-0.056917828 -0.0078380611 -0.0081708794
-0.057436567 -0.0080725495 -0.0081369905
-0.058992773 -0.0087760147 -0.0080353254
-0.05942269 -0.0091484943 -0.0082662189
-0.059941243 -0.0093828999 -0.0082323421
-0.060370669 -0.009755034 -0.0084630856
-0.060889043 -0.0099893566 -0.0084292199
-0.06131798 -0.010361146 -0.0086598117
-0.061836168 -0.010595386 -0.008625959
-0.062354356 -0.010829626 -0.0085921064
-0.062962525 -0.010926648 -0.0082937619
-0.063480899 -0.011160971 -0.0082598971
-0.063999265 -0.011395293 -0.0082260324
-0.06451764 -0.011629616 -0.0081921685
-0.065036014 -0.011863939 -0.0081583029
-0.065463476 -0.012235064 -0.0083889905
-0.065890655 -0.012605929 -0.0086195152
-0.066408664 -0.012840086 -0.0085856747
-0.066926666 -0.013074243 -0.0085518342
-0.067444667 -0.0133084 -0.0085179927
-0.067962669 -0.013542557 -0.0084841531
-0.068480678 -0.013776713 -0.0084503116
-0.06899868 -0.014010871 -0.0084164701
-0.069516689 -0.014245028 -0.0083826305
-0.014225292 0.012342668 -0.0085880682
-0.014672297 0.011961644 -0.0088194208
-0.015118986 0.011580889 -0.0090506105
-0.015712349 0.011491503 -0.0087514753
-0.016158666 0.011110914 -0.0089826891
-0.016678508 0.010875927 -0.0089487284
-0.017124327 0.010495692 -0.0091797896
-0.017495731 0.0099707674 -0.0096753463
-0.017866608 0.0094465846 -0.010170201
-0.018459892 0.0093566021 -0.0098719923
-0.019053597 0.0092665544 -0.0095735723
-0.019647721 0.0091764443 -0.0092749409
-0.020242266 0.009086269 -0.0089760982
-0.020837232 0.0089960322 -0.008677043
-0.021357074 0.0087610446 -0.0086430814
-0.021876914 0.008526057 -0.0086091217
-0.022548644 0.0085802097 -0.0080443118
-0.047107112 -0.0044827461 -0.0092959153
-0.0476253 -0.0047169859 -0.0092620617
-0.048143491 -0.0049512256 -0.009228209
-0.048661679 -0.0051854653 -0.0091943573
-0.049094785 -0.0055588195 -0.009424597
-0.049698051 -0.0056539448 -0.009126652
-0.050301746 -0.0057491381 -0.0088284947
-0.050905868 -0.0058443979 -0.0085301287
-0.05133849 -0.0062177829 -0.0087607661
-0.051942978 -0.0063132085 -0.008462375
-0.052547894 -0.0064087021 -0.0081637725
-0.052893601 -0.0069207507 -0.0086591719
-0.053498641 -0.0070164246 -0.0083607454
-0.053843554 -0.0075278631 -0.0088558299
-0.054361738 -0.0077621029 -0.0088219773
-0.05487993 -0.0079963431 -0.0087881237
-0.055572856 -0.0079540471 -0.0082252389
-0.059632424 -0.0099669434 -0.008218931
-0.060061805 -0.01033874 -0.0084495973
-0.060579993 -0.01057298 -0.0084157446
-0.061008893 -0.010944432 -0.00864626
-0.061526898 -0.011178588 -0.0086124195
-0.062134556 -0.011275699 -0.0083141867
-0.062652744 -0.011509939 -0.0082803331
-0.063170932 -0.011744179 -0.0082464805
-0.063598916 -0.012115216 -0.0084770564
-0.064116918 -0.012349374 -0.0084432149
-0.064634927 -0.012583531 -0.0084093744
-0.06506224 -0.012954141 -0.0086398106
-0.065580063 -0.013188215 -0.0086059822
-0.066006891 -0.013558481 -0.0088362675
-0.066615701 -0.013656365 -0.0085383244
-0.067224942 -0.013754317 -0.0082401717
-0.067742951 -0.013988473 -0.0082063302
-0.068169169 -0.014358588 -0.0084368382
-0.068778962 -0.014456787 -0.0081386492
-0.069296964 -0.014690945 -0.0081048077
-0.01407763 0.012040753 -0.0080434503
-0.01445172 0.011513988 -0.0085405158
-0.014971745 0.011278917 -0.008506543
-0.015491771 0.011043848 -0.0084725702
-0.015938168 0.010663418 -0.0087038819
-0.016310543 0.010138188 -0.0091999508
-0.016756179 0.0097584827 -0.0094307605
-0.017127577 0.0092344508 -0.0099257892
-0.017646499 0.0089998785 -0.0098918881
-0.018239705 0.0089097377 -0.0095935799
-0.01883333 0.0088195335 -0.0092950622
-0.019427378 0.0087292641 -0.0089963311
-0.020021845 0.0086389314 -0.0086973896
-0.020692021 0.0086931437 -0.0081328433
-0.046887316 -0.0049288203 -0.0090179946
-0.047405504 -0.0051630596 -0.008984142
-0.047839053 -0.0055364217 -0.0092144562
-0.048272297 -0.0059095202 -0.0094446084
-0.04879012 -0.0061435942 -0.0094107799
-0.049393065 -0.0062388927 -0.0091129337
-0.049911071 -0.0064730495 -0.009079094
-0.050600242 -0.0064296918 -0.0085166125
-0.051118616 -0.0066640144 -0.0084827468
-0.051636986 -0.006898337 -0.008448883
-0.052155357 -0.0071326597 -0.0084150182
-0.052501094 -0.0076438352 -0.0089098904
-0.053192098 -0.0076013044 -0.0083472887
-0.053537104 -0.0081121493 -0.0088422075
-0.054141946 -0.0082081771 -0.0085440567
-0.058287445 -0.010082095 -0.0082732355
-0.058805633 -0.010316335 -0.0082393829
-0.059323821 -0.010550574 -0.0082055302
-0.059753161 -0.010922033 -0.0084361192
-0.060271166 -0.011156191 -0.0084022786
-0.060789168 -0.011390347 -0.0083684381
-0.061307173 -0.011624505 -0.0083345966
-0.061825179 -0.011858662 -0.0083007561
-0.062343184 -0.012092819 -0.0082669156
-0.062681489 -0.012600133 -0.0087615419
-0.063199125 -0.012834124 -0.0087277256
-0.063806951 -0.012931751 -0.0084297443
-0.064324774 -0.013165826 -0.0083959149
-0.064842597 -0.013399901 -0.0083620865
-0.065269686 -0.013770091 -0.0085924575
-0.065787323 -0.014004082 -0.0085586412
-0.066304959 -0.014238075 -0.0085248239
-0.066822603 -0.014472066 -0.0084910076
-0.06734024 -0.014706058 -0.0084571904
-0.067857876 -0.01494005 -0.008423374
-0.068467349 -0.01503842 -0.0081252847
-0.013783981 0.011447039 -0.0080300588
-0.014231143 0.011066332 -0.0082616098
-0.014677988 0.010685895 -0.008492996
-0.015051255 0.010160648 -0.0089892149
-0.015497335 0.0097809359 -0.0092200981
-0.015943099 0.0094014918 -0.0094508193
-0.016462203 0.0091668377 -0.0094169062
-0.016833682 0.0086434092 -0.0099117691
-0.01742639 0.0085531743 -0.0096135745
-0.018019518 0.0084628742 -0.0093151685
-0.018613067 0.0083725117 -0.0090165511
-0.019281769 0.0084264977 -0.0084526297
-0.045882985 -0.0044879364 -0.0080140056
-0.046149328 -0.0051406543 -0.0087739276
-0.04666752 -0.0053748935 -0.008740074
-0.047017008 -0.0058871303 -0.009234542
-0.047534831 -0.0061212042 -0.0092007136
-0.048052654 -0.0063552791 -0.0091668842
-0.048570476 -0.0065893531 -0.0091330558
-0.049173348 -0.006684809 -0.0088351127
-0.049691353 -0.0069189663 -0.0088012712
-0.050209358 -0.0071531232 -0.0087674307
-0.050813019 -0.0072488124 -0.0084692528
-0.051331207 -0.0074830516 -0.0084354002
-0.051849395 -0.0077172918 -0.0084015476
-0.052281376 -0.008089751 -0.0086320676
-0.052799381 -0.0083239088 -0.0085982261
-0.053317387 -0.0085580656 -0.0085643865
-0.053835388 -0.0087922234 -0.008530545
-0.057461422 -0.010431322 -0.0082936604
-0.057979427 -0.010665479 -0.0082598189
-0.058409091 -0.011036766 -0.0084903082
-0.058926914 -0.011270841 -0.0084564788
-0.05935609 -0.011641784 -0.0086868173
-0.05987373 -0.011875776 -0.0086530009
-0.06039137 -0.012109767 -0.0086191837
-0.060909007 -0.012343759 -0.0085853674
-0.061426647 -0.01257775 -0.0085515501
-0.061944287 -0.012811743 -0.0085177338
-0.062372245 -0.013182011 -0.0087479688
-0.062889703 -0.01341592 -0.0087141637
-0.063497201 -0.013513718 -0.0084162829
-0.064105131 -0.013611585 -0.0081181917
-0.064622954 -0.013845659 -0.0080843633
-0.064959526 -0.014351557 -0.008578944
-0.065386273 -0.014721151 -0.0088090766
-0.065994449 -0.014819375 -0.0085113337
-0.066511899 -0.015053284 -0.0084775286
-0.067029357 -0.015287193 -0.0084437234
-0.067638315 -0.015385652 -0.0081457477
-0.068155952 -0.015619643 -0.0081119305
-0.011786155 0.011267811 -0.008649203
-0.012305813 0.011032907 -0.0086152544
-0.012897966 0.010943359 -0.0083160717
-0.013417807 0.010708372 -0.008282111
-0.013937647 0.010473385 -0.0082481513
-0.014238493 0.0098033892 -0.0090094376
-0.014611675 0.0092793256 -0.0095047634
-0.015057437 0.0089003267 -0.0097352201
-0.015576174 0.0086658383 -0.0097013311
-0.016094912 0.0084313508 -0.0096674422
-0.016613649 0.0081968624 -0.0096335532
-0.017354226 0.008394965 -0.0088058887
-0.017873513 0.0081602279 -0.0087719653
-0.044976782 -0.0049789292 -0.0082992222
-0.045411345 -0.0053524883 -0.0085298596
-0.045845602 -0.0057257833 -0.0087603349
-0.046195548 -0.0062375907 -0.009254613
-0.046713188 -0.0064715827 -0.0092207966
-0.047230829 -0.0067055747 -0.0091869794
-0.047748465 -0.0069395662 -0.0091531631
-0.048350833 -0.007035112 -0.0088553317
-0.048868656 -0.0072691864 -0.0088215023
-0.049386479 -0.0075032609 -0.0087876739
-0.049904302 -0.0077373353 -0.0087538455
-0.050422121 -0.0079714097 -0.0087200161
-0.051025648 -0.0080673536 -0.0084219277
-0.051629595 -0.0081633655 -0.0081236269
-0.052061658 -0.0085356673 -0.0083542448
-0.05240722 -0.0090454919 -0.0088488115
-0.052924857 -0.0092794839 -0.0088149942
-0.053615671 -0.0092381388 -0.0082527241
-0.056723699 -0.010643082 -0.008049679
-0.057153806 -0.011014377 -0.0082802419
-0.057583608 -0.011385409 -0.0085106418
-0.058101244 -0.011619402 -0.0084768245
-0.058618885 -0.011853393 -0.0084430082
-0.059136525 -0.012087385 -0.0084091909
-0.059654165 -0.012321377 -0.0083753746
-0.060082935 -0.012691818 -0.0086056609
-0.060600393 -0.012925727 -0.0085718557
-0.061117847 -0.013159636 -0.0085380506
-0.061635304 -0.013393546 -0.0085042454
-0.062152758 -0.013627455 -0.0084704403
-0.062670216 -0.013861365 -0.0084366351
-0.064222589 -0.014563092 -0.0083352206
-0.064649589 -0.014932611 -0.0085654389
-0.065166861 -0.015166438 -0.0085316459
-0.065593392 -0.015535615 -0.0087617142
-0.066110484 -0.015769359 -0.0087279333
-0.06671869 -0.015867919 -0.0084302677
-0.067327321 -0.015966548 -0.0081323907
-0.010902497 0.010764793 -0.0089344736
-0.011134498 0.0099504506 -0.0099584097
-0.011941074 0.010295318 -0.0088666249
-0.012460362 0.01006058 -0.0088327006
-0.012834803 0.0095363343 -0.0093281521
-0.013353724 0.009301763 -0.009294251
-0.013799932 0.0089227566 -0.0095247822
-0.014318668 0.0086882673 -0.0094908932
-0.014837407 0.0084537799 -0.0094570043
-0.015356144 0.0082192915 -0.0094231153
-0.015874881 0.0079848031 -0.0093892282
-0.016467251 0.0078943344 -0.0090908483
-0.017133959 0.0079479432 -0.0085273795
-0.043118797 -0.0048616026 -0.0083873505
-0.043387786 -0.0055132336 -0.009146071
-0.043988615 -0.005608276 -0.0088482378
-0.044506438 -0.0058423504 -0.0088144094
-0.044940703 -0.0062152091 -0.0090446202
-0.045207486 -0.0068647191 -0.0098018441
-0.045724578 -0.0070984629 -0.0097680632
-0.046241667 -0.0073322076 -0.0097342823
-0.046674713 -0.0077040154 -0.0099638449
-0.047275852 -0.0077996962 -0.0096667204
-0.047877416 -0.0078954445 -0.0093693845
-0.048310034 -0.0082671847 -0.0095991576
-0.048996862 -0.008225169 -0.0090380358
-0.049599458 -0.0083211344 -0.0087402686
-0.050117098 -0.0085551273 -0.0087064523
-0.050634734 -0.0087891184 -0.0086726351
-0.051152375 -0.0090231104 -0.0086388187
-0.051670015 -0.0092571024 -0.0086050015
-0.052187651 -0.0094910935 -0.0085711852
-0.052705292 -0.0097250855 -0.0085373679
-0.053222932 -0.0099590765 -0.0085035507
-0.05641634 -0.011226061 -0.0080363462
-0.056846406 -0.01159702 -0.0082668336
-0.057276163 -0.011967716 -0.0084971571
-0.057793621 -0.012201626 -0.0084633511
-0.058399323 -0.012298995 -0.0081653828
-0.058916956 -0.012532987 -0.0081315655
-0.059434596 -0.012766979 -0.0080977492
-0.059863444 -0.013137262 -0.0083281314
-0.060380902 -0.013371172 -0.0082943272
-0.060898356 -0.013605081 -0.008260522
-0.061326537 -0.013974939 -0.0084907664
-0.061843812 -0.014208765 -0.0084569743
-0.062450729 -0.014306809 -0.0081591075
-0.063485645 -0.014774627 -0.0080914972
-0.064003095 -0.015008536 -0.0080576921
-0.064339876 -0.015513257 -0.008551944
-0.064856961 -0.015747001 -0.0085181631
-0.065283448 -0.016115842 -0.0087481551
-0.065800354 -0.016349506 -0.0087143853
-0.066317268 -0.016583169 -0.0086806165
-0.067016549 -0.016547034 -0.008119043
-0.009948737 0.010117627 -0.0094837872
-0.010395991 0.0097384676 -0.0097141694
-0.010842927 0.0093595739 -0.0099443886
-0.011361297 0.0091252513 -0.009910523
-0.011951652 0.0090352511 -0.0096125389
-0.012470206 0.0088008456 -0.0095786629
-0.013061162 0.0087106973 -0.0092804553
-0.013579899 0.0084762098 -0.0092465663
-0.014098638 0.0082417214 -0.0092126783
-0.014690378 0.0081513431 -0.008914236
-0.0152093 0.0079167727 -0.0088803349
-0.01572822 0.007682201 -0.0088464348
-0.016394405 0.0077356589 -0.0082827928
-0.04238081 -0.005073437 -0.0081432825
-0.042485267 -0.0060024643 -0.0094298851
-0.042837095 -0.0065133558 -0.0099229943
-0.043354001 -0.0067470176 -0.0098892264
-0.04395397 -0.0068423604 -0.009592074
-0.044471063 -0.0070761051 -0.009558293
-0.044988152 -0.0073098494 -0.0095245121
-0.045505244 -0.0075435932 -0.0094907312
-0.045938548 -0.0079153273 -0.0097203795
-0.046455454 -0.0081489887 -0.0096866107
-0.046972368 -0.0083826501 -0.0096528418
-0.047573611 -0.0084785707 -0.0093556065
-0.048090704 -0.008712315 -0.0093218246
-0.048607796 -0.0089460593 -0.0092880437
-0.049209826 -0.0090422118 -0.0089905756
-0.049727101 -0.009276038 -0.0089567835
-0.050329741 -0.0093723414 -0.0086590927
-0.050847199 -0.0096062506 -0.0086252876
-0.051278923 -0.0099775176 -0.0088554043
-0.051796194 -0.010211345 -0.0088216104
-0.052399568 -0.010307978 -0.0085238731
-0.056021761 -0.011945342 -0.008287238
-0.056539219 -0.012179252 -0.0082534328
-0.05688126 -0.012685968 -0.0087475469
-0.057398349 -0.012919712 -0.0087137651
-0.057915442 -0.013153456 -0.0086799841
-0.058432534 -0.0133872 -0.0086462032
-0.058949627 -0.013620945 -0.0086124223
-0.059466716 -0.013854689 -0.0085786413
-0.059983805 -0.014088433 -0.0085448595
-0.060500901 -0.014322178 -0.0085110785
-0.06101799 -0.014555922 -0.0084772976
-0.061445829 -0.014925185 -0.0087073036
-0.061962739 -0.015158846 -0.0086735347
-0.062479645 -0.015392507 -0.0086397659
-0.062996559 -0.01562617 -0.0086059961
-0.063423544 -0.015994925 -0.0088358764
-0.063940272 -0.016228504 -0.0088021196
-0.064456999 -0.016462084 -0.0087683611
-0.065064192 -0.016560817 -0.0084709199
-0.065581098 -0.016794479 -0.0084371502
-0.066098005 -0.017028142 -0.0084033813
-0.066706002 -0.01712711 -0.0081057064
-0.0093521997 0.010195237 -0.0087102093
-0.0097287064 0.0096710809 -0.0092055723
-0.010247443 0.0094365925 -0.0091716833
-0.01069459 0.0090576727 -0.0094021764
-0.011141422 0.0086790202 -0.0096325055
-0.011659793 0.0084446976 -0.0095986407
-0.012250254 0.0083544562 -0.0093005458
-0.012768808 0.0081200507 -0.0092666689
-0.013359869 0.0080296621 -0.0089683514
-0.013878606 0.0077951737 -0.0089344624
-0.014543246 0.0078486931 -0.0083710821
-0.015135564 0.0077581126 -0.0080721313
-0.015654853 0.0075233751 -0.008038206
-0.041830953 -0.0060752383 -0.0089224437
-0.04193623 -0.0070011928 -0.010205861
-0.042452775 -0.0072346898 -0.010172117
-0.04296932 -0.0074681873 -0.01013837
-0.043651652 -0.0074256528 -0.0095782224
-0.044168565 -0.0076593147 -0.0095444527
-0.044685476 -0.0078929765 -0.0095106829
-0.045202382 -0.0081266388 -0.0094769141
-0.045552049 -0.0086356737 -0.0099696433
-0.046068594 -0.0088691711 -0.0099358978
-0.046585135 -0.0091026677 -0.0099021532
-0.047270019 -0.0090612862 -0.0093418378
-0.047786929 -0.0092949476 -0.0093080681
-0.048388463 -0.0093911896 -0.0090107117
-0.048905551 -0.0096249338 -0.0089769308
-0.049337659 -0.0099959336 -0.0092067607
-0.049854565 -0.010229595 -0.0091729918
-0.050371476 -0.010463258 -0.0091392221
-0.050973918 -0.010559911 -0.0088418061
-0.051576786 -0.010656632 -0.0085441805
-0.05528482 -0.012156878 -0.0080435155
-0.055627741 -0.012663609 -0.0085377768
-0.056057479 -0.013033538 -0.0087677613
-0.056574386 -0.0132672 -0.0087339915
-0.057091296 -0.013500862 -0.0087002227
-0.05760821 -0.013734524 -0.008666453
-0.058125116 -0.013968186 -0.0086326851
-0.058553819 -0.014337525 -0.0088625541
-0.059070546 -0.014571104 -0.0088287974
-0.059587274 -0.014804684 -0.0087950397
-0.060192753 -0.014902834 -0.008497607
-0.060709663 -0.015136495 -0.0084638381
-0.061137456 -0.015505423 -0.0086937686
-0.061654184 -0.015739001 -0.008660011
-0.062170912 -0.015972583 -0.0086262543
-0.062687635 -0.016206162 -0.0085924957
-0.063204363 -0.016439741 -0.008558739
-0.063721091 -0.016673321 -0.0085249813
-0.064147674 -0.017041577 -0.0087548094
-0.064754546 -0.01714048 -0.008457467
-0.065271273 -0.017374059 -0.0084237102
-0.065788001 -0.017607639 -0.0083899526
-0.06639567 -0.017706776 -0.0080923773
-0.0084712002 0.0096935099 -0.0089951344
-0.0089899376 0.0094590215 -0.0089612454
-0.009651117 0.009513719 -0.0083978847
-0.010170222 0.0092790639 -0.0083639715
-0.010474637 0.0086112833 -0.0091240583
-0.010921547 0.0082327891 -0.0093544861
-0.01136814 0.0078545623 -0.0095847519
-0.011958288 0.0077641434 -0.0092867576
-0.012548854 0.0076736612 -0.0089885518
-0.013067408 0.0074392557 -0.0089546759
-0.013658575 0.0073486264 -0.0086562485
-0.041118581 -0.0073503978 -0.010225541
-0.041634943 -0.0075838128 -0.010191808
-0.042068999 -0.0079550082 -0.010420887
-0.042667672 -0.0080506429 -0.010124341
-0.043349553 -0.0080085332 -0.0095643792
-0.04386628 -0.0082421135 -0.0095306216
-0.044466216 -0.0083379494 -0.0092334487
-0.044899736 -0.0087092724 -0.0094631072
-0.045249488 -0.0092177177 -0.0099556735
-0.045765851 -0.0094511341 -0.00992194
-0.046282217 -0.0096845487 -0.0098882057
-0.046882581 -0.009780826 -0.009591368
-0.047399126 -0.010014324 -0.0095576225
-0.047831304 -0.010384794 -0.0097870054
-0.048347667 -0.010618209 -0.0097532719
-0.049033549 -0.01057791 -0.0091930497
-0.049550276 -0.010811489 -0.0091592912
-0.050067004 -0.011045069 -0.0091255344
-0.05066913 -0.011141893 -0.0088282181
-0.051357377 -0.01110192 -0.0082667507
-0.054891318 -0.012874995 -0.0082942247
-0.055321313 -0.013244851 -0.0085242959
-0.05566385 -0.013750279 -0.0090176966
-0.056180391 -0.013983777 -0.0089839511
-0.05669694 -0.014217274 -0.0089502046
-0.057125844 -0.014586265 -0.0091798017
-0.05773003 -0.014684269 -0.0088827144
-0.058246575 -0.014917767 -0.0088489698
-0.05876312 -0.015151264 -0.0088152234
-0.059279665 -0.015384761 -0.0087814778
-0.059884824 -0.015483079 -0.0084841466
-0.060401551 -0.015716659 -0.0084503889
-0.060740385 -0.016220171 -0.0089436676
-0.061256751 -0.016453587 -0.0089099342
-0.061773114 -0.016687002 -0.0088762008
-0.062468462 -0.016650978 -0.0083153592
-0.062895484 -0.017019242 -0.0085452609
-0.063412026 -0.01725274 -0.0085115144
-0.063928574 -0.017486237 -0.0084777698
-0.064445116 -0.017719734 -0.0084440242
-0.065052092 -0.017818876 -0.0081465729
-0.065568827 -0.018052455 -0.0081128161
-0.066085547 -0.018286036 -0.0080790585
-0.0083927214 0.0095361639 -0.0081872968
-0.0089118248 0.0093015097 -0.0081533846
-0.00943093 0.0090668555 -0.0081194714
-0.0098073818 0.008543497 -0.0086152526
-0.010111966 0.007876968 -0.0093745366
-0.010630154 0.0076427278 -0.0093406839
-0.011148342 0.0074084881 -0.0093068313
-0.011738413 0.0073179123 -0.0090087382
-0.012256783 0.0070835897 -0.0089748744
-0.012919807 0.0071365675 -0.0084119216
-0.013438544 0.0069020791 -0.0083780326
-0.040899556 -0.0077949008 -0.0099485992
-0.041415919 -0.0080283154 -0.0099148657
-0.041932281 -0.0082617309 -0.0098811323
-0.042531118 -0.0083575072 -0.0095842918
-0.043130375 -0.0084533505 -0.0092872418
-0.043647103 -0.0086869299 -0.0092534851
-0.044163831 -0.0089205094 -0.0092197275
-0.044514097 -0.0094288066 -0.0097124642
-0.045030463 -0.0096622221 -0.0096787307
-0.04546332 -0.010032686 -0.0099079907
-0.045979504 -0.010266019 -0.0098742684
-0.046495687 -0.010499353 -0.0098405471
-0.047011867 -0.010732685 -0.0098068258
-0.047612283 -0.010829297 -0.0095100636
-0.048128642 -0.011062712 -0.0094763301
-0.048645008 -0.011296127 -0.0094425967
-0.049161371 -0.011529543 -0.0094088633
-0.049762748 -0.01162647 -0.0091118561
-0.050279297 -0.011859966 -0.0090781106
-0.050966781 -0.011820528 -0.008517215
-0.054154892 -0.013086381 -0.0080506736
-0.054585148 -0.013456161 -0.0082808305
-0.054928202 -0.013961443 -0.0087744016
-0.055444747 -0.014194939 -0.008740657
-0.055961292 -0.014428438 -0.0087069115
-0.056477837 -0.014661935 -0.0086731659
-0.056906823 -0.01503077 -0.0089028599
-0.057423182 -0.015264184 -0.0088691264
-0.05785168 -0.015632678 -0.0090986714
-0.058544017 -0.015595923 -0.0085381838
-0.059060566 -0.015829422 -0.0085044382
-0.059577111 -0.016062917 -0.0084706936
-0.060005002 -0.016431259 -0.0087004583
-0.06052136 -0.016664675 -0.0086667249
-0.061037727 -0.01689809 -0.0086329915
-0.061554093 -0.017131506 -0.008599258
-0.062070455 -0.017364919 -0.0085655246
-0.062497318 -0.017732674 -0.0087951766
-0.063192926 -0.017697399 -0.0082344757
-0.063619547 -0.018065164 -0.0084643243
-0.064135909 -0.018298579 -0.0084305909
-0.064742558 -0.018397892 -0.00813324
-0.0088557927 0.0078993738 -0.0091643222
-0.0093739806 0.0076651336 -0.0091304695
-0.0098209633 0.0072872411 -0.0093607325
-0.010410355 0.0071966536 -0.0090627633
-0.010928544 0.0069624144 -0.0090289107
-0.011518536 0.0068716803 -0.0087307207
-0.012036908 0.0066373576 -0.008696856
-0.012699774 0.0066900207 -0.0081337057
-0.040844288 -0.0079638492 -0.0091451341
-0.041278929 -0.0083351722 -0.0093747433
-0.04179547 -0.0085686697 -0.0093409978
-0.04239447 -0.0086645875 -0.0090438621
-0.042911194 -0.0088981679 -0.0090101054
-0.043427922 -0.0091317464 -0.0089763477
-0.04369583 -0.0097770346 -0.0097323116
-0.044212013 -0.010010367 -0.0096985893
-0.044561882 -0.010517362 -0.01019047
-0.0450777 -0.01075053 -0.010156772
-0.045593519 -0.010983699 -0.010123073
-0.046276741 -0.010943699 -0.0095637022
-0.046876892 -0.011040385 -0.0092668552
-0.047393259 -0.0112738 -0.0092331218
-0.047741007 -0.011780085 -0.0097255027
-0.048172612 -0.012149543 -0.0099545838
-0.048773009 -0.012246585 -0.0096580833
-0.049458709 -0.012207462 -0.0090981871
-0.050060198 -0.012304626 -0.008801071
-0.0506621 -0.012401861 -0.0085037462
-0.053332072 -0.013433811 -0.0080711339
-0.053848986 -0.013667473 -0.008037365
-0.054279193 -0.014036918 -0.0082674446
-0.054709103 -0.014406102 -0.008497363
-0.055225648 -0.0146396 -0.0084636174
-0.055742193 -0.014873098 -0.0084298719
-0.056258734 -0.015106594 -0.0083961263
-0.056687798 -0.015475272 -0.0086259181
-0.057116553 -0.015843691 -0.0088555478
-0.057632737 -0.016077025 -0.0088218274
-0.058148917 -0.016310358 -0.0087881051
-0.058753248 -0.016408933 -0.0084909843
-0.059269611 -0.016642347 -0.0084572509
-0.059609007 -0.017144853 -0.0089501776
-0.060125008 -0.017378105 -0.0089164674
-0.060729824 -0.017477022 -0.0086194966
-0.061246008 -0.017710356 -0.0085857753
-0.061762188 -0.017943688 -0.008552053
-0.062278371 -0.018177021 -0.0085183317
-0.063400522 -0.018509669 -0.0081873825
-0.063916884 -0.018743085 -0.008153649
-0.064433247 -0.0189765 -0.0081199147
-0.0081178071 0.0076875393 -0.0089202542
-0.0084238583 0.0070226211 -0.0096784113
-0.0089414977 0.0067886296 -0.009644594
-0.009459137 0.006554638 -0.0096107777
-0.010119247 0.0066071679 -0.0090490691
-0.010780291 0.0066597713 -0.0084865661
-0.011298661 0.0064254487 -0.0084527014
-0.011817032 0.0061911265 -0.0084188366
-0.040190086 -0.0080372375 -0.0086381296
-0.040625107 -0.0084086657 -0.0088679967
-0.041059826 -0.0087798331 -0.0090977037
-0.041576371 -0.0090133296 -0.0090639582
-0.042175289 -0.0091094049 -0.0087667257
-0.042444523 -0.0097547146 -0.0095229102
-0.042795632 -0.01026189 -0.010014914
-0.043311451 -0.010495058 -0.0099812169
-0.043827269 -0.010728227 -0.0099475179
-0.044260096 -0.011097926 -0.010176442
-0.044775736 -0.011331012 -0.010142756
-0.045291372 -0.011564099 -0.010109069
-0.046141505 -0.011251475 -0.0090236459
-0.046657868 -0.011484889 -0.0089899134
-0.047174234 -0.011718304 -0.00895618
-0.047437999 -0.012360409 -0.0097116325
-0.047953818 -0.012593578 -0.0096779345
-0.048469637 -0.012826747 -0.0096442364
-0.049324546 -0.012515789 -0.0085577779
-0.049841095 -0.012749286 -0.0085240314
-0.050442923 -0.012846678 -0.0082266089
-0.053026561 -0.014014575 -0.0080578225
-0.053543288 -0.014248155 -0.0080240648
-0.053973455 -0.014617265 -0.008254068
-0.05449 -0.014850763 -0.0082203234
-0.055006545 -0.01508426 -0.0081865778
-0.05552309 -0.015317757 -0.0081528323
-0.055952407 -0.015686361 -0.0083827097
-0.056381423 -0.016054705 -0.008612426
-0.056897607 -0.016288038 -0.0085787037
-0.057326138 -0.016656043 -0.0088082692
-0.05792997 -0.016754704 -0.0085112602
-0.05844615 -0.016988037 -0.0084775388
-0.058962334 -0.017221371 -0.0084438175
-0.059390139 -0.017589044 -0.0086734304
-0.059994698 -0.017688036 -0.0083763739
-0.060510881 -0.01792137 -0.0083426526
-0.061027061 -0.018154701 -0.0083089303
-0.061543241 -0.018388035 -0.0082752081
-0.062059421 -0.018621368 -0.0082414877
-0.063091785 -0.019088034 -0.0081740441
-0.0073095029 0.0073320363 -0.0089404508
-0.0076866546 0.0068110111 -0.0094346022
-0.0082042934 0.0065770196 -0.0094007859
-0.0087219328 0.006343028 -0.0093669677
-0.0092395712 0.0061090365 -0.0093331514
-0.00997076 0.0063045062 -0.008506923
-0.010560415 0.0062135402 -0.0082085477
-0.039453924 -0.008248549 -0.0083946642
-0.039889202 -0.0086199027 -0.0086246179
-0.040324178 -0.0089909956 -0.0088544106
-0.040758844 -0.0093618259 -0.0090840403
-0.041111268 -0.0098694554 -0.0095765255
-0.041545205 -0.010239586 -0.0098056607
-0.04206102 -0.010472756 -0.0097719617
-0.042576838 -0.010705924 -0.0097382637
-0.043010104 -0.01107563 -0.009967261
-0.043525741 -0.011308718 -0.0099335751
-0.043958522 -0.011678083 -0.010162422
-0.04447398 -0.011911087 -0.010128748
-0.044989433 -0.012144092 -0.010095074
-0.045922481 -0.011695977 -0.008746705
-0.046438843 -0.011929393 -0.0087129716
-0.046703387 -0.012571274 -0.0094686802
-0.047219209 -0.012804443 -0.0094349831
-0.047735024 -0.013037612 -0.0094012851
-0.048250843 -0.01327078 -0.009367587
-0.049105447 -0.012960449 -0.0082807383
-0.052118842 -0.014496959 -0.0083419029
-0.052635204 -0.014730373 -0.0083081694
-0.053065389 -0.015099054 -0.0085379109
-0.055733383 -0.016130865 -0.0081057679
-0.05616248 -0.016499052 -0.008335581
-0.056416672 -0.017135888 -0.0090914229
-0.057019759 -0.017234651 -0.0087947221
-0.057535578 -0.017467819 -0.0087610241
-0.058139272 -0.017566735 -0.0084641026
-0.058743384 -0.017665716 -0.0081669735
-0.059171267 -0.018033236 -0.0083966833
-0.059775747 -0.018132383 -0.008099529
-0.060203269 -0.018499738 -0.0083292639
-0.06071927 -0.018732989 -0.0082955537
-0.061235268 -0.018966239 -0.0082618445
-0.062783271 -0.01966599 -0.008160715
-0.0065717781 0.0071202768 -0.0086964695
-0.0069494499 0.0065994016 -0.0091907931
-0.0074670892 0.0063654101 -0.0091569759
-0.0079847286 0.006131418 -0.0091231596
-0.008502367 0.0058974265 -0.0090893423
-0.0090908781 0.0058064125 -0.0087914886
-0.0097509623 0.0058584325 -0.0082290033
-0.038717754 -0.0084598595 -0.0081511987
-0.038990732 -0.0091060847 -0.0089082988
-0.039507095 -0.0093394993 -0.0088745654
-0.040023461 -0.0095729148 -0.0088408319
-0.040294774 -0.010217283 -0.0095964056
-0.040810592 -0.010450452 -0.0095627075
-0.041326407 -0.01068362 -0.0095290104
-0.041760117 -0.011053335 -0.0097580804
-0.042275753 -0.011286422 -0.0097243944
-0.042791389 -0.011519509 -0.0096907085
-0.043307025 -0.011752596 -0.0096570225
-0.043739885 -0.012121805 -0.0098859677
-0.044255342 -0.01235481 -0.0098522929
-0.044770792 -0.012587815 -0.0098186191
-0.045536399 -0.012412904 -0.0089963917
-0.0460524 -0.012646155 -0.0089626806
-0.046400849 -0.013151118 -0.0094549051
-0.046916489 -0.013384204 -0.00942122
-0.04751623 -0.013481647 -0.0091246357
-0.048285276 -0.013307557 -0.0083010951
-0.048886344 -0.01340511 -0.0080036987
-0.051814079 -0.015076735 -0.0083285104
-0.052416179 -0.015174877 -0.0080312267
-0.05542735 -0.016710065 -0.0080924584
-0.055769328 -0.017212346 -0.0085854679
-0.056197956 -0.017579768 -0.0088148694
-0.056626283 -0.017946929 -0.0090441117
-0.057316784 -0.017911853 -0.0084843738
-0.057832602 -0.018145023 -0.0084506767
-0.0042800386 0.0076109893 -0.0085540107
-0.0047980435 0.007376832 -0.0085201692
-0.0053160484 0.0071426751 -0.0084863277
-0.0056946068 0.0066217836 -0.0089808004
-0.0062122461 0.0063877921 -0.0089469831
-0.00665987 0.0060107498 -0.0091770673
-0.0071071791 0.005633974 -0.0094069894
-0.0076244529 0.0054001468 -0.0093731955
-0.0082828021 0.0054518245 -0.008811716
-0.0088712359 0.0053606541 -0.0085137645
-0.038012706 -0.0097286422 -0.0094545474
-0.038528524 -0.0099618109 -0.0094208503
-0.03896321 -0.01033178 -0.0096499585
-0.03947885 -0.010564866 -0.0096162725
-0.039831676 -0.011070936 -0.010107692
-0.040428508 -0.011167497 -0.0098115578
-0.040943965 -0.011400502 -0.0097778831
-0.041459419 -0.011633508 -0.0097442092
-0.041974876 -0.011866513 -0.0097105354
-0.042572673 -0.011963388 -0.009414156
-0.043088309 -0.012196474 -0.00938047
-0.043438599 -0.012701398 -0.0098720547
-0.043953873 -0.012934322 -0.009838393
-0.044552159 -0.013031537 -0.0095421635
-0.045150861 -0.013128822 -0.0092457253
-0.045666497 -0.013361908 -0.0092120403
-0.046182133 -0.013594995 -0.0091783535
-0.046697769 -0.013828082 -0.0091446675
-0.047465678 -0.013654419 -0.0083214389
-0.051078949 -0.015287749 -0.0080853868
-0.051595129 -0.015521083 -0.0080516655
-0.055034719 -0.017423214 -0.0083425166
-0.055463605 -0.017790558 -0.0085720047
-0.055892188 -0.018157646 -0.0088013299
-0.056320474 -0.018524475 -0.0090304948
-0.056923099 -0.018623656 -0.0087339813
-0.057613812 -0.018589057 -0.0081740264
-0.058129627 -0.018822227 -0.0081403293
-0.0034044855 0.0071121491 -0.0088384422
-0.0038531004 0.0067348513 -0.0090685636
-0.0043705567 0.0065009422 -0.0090347584
-0.0049574026 0.0064101741 -0.0087369913
-0.005335947 0.0058901669 -0.0092309378
-0.0058532208 0.0056563402 -0.0091971448
-0.0063704951 0.0054225135 -0.0091633517
-0.0068177474 0.0050460771 -0.0093931975
-0.0074050426 0.0049548596 -0.0090957657
-0.0080632372 0.005006223 -0.0085340897
-0.0086515928 0.0049148952 -0.0082360404
-0.037084147 -0.0091574891 -0.0081920186
-0.037358657 -0.0098025221 -0.0089485431
-0.037713222 -0.010309484 -0.0094407788
-0.038148046 -0.0106792 -0.0096697984
-0.03858256 -0.011048657 -0.0098986588
-0.039097838 -0.01128158 -0.0098649971
-0.039613113 -0.011514503 -0.0098313345
-0.040128388 -0.011747426 -0.0097976718
-0.040643662 -0.011980348 -0.0097640092
-0.041240782 -0.012077229 -0.0094677536
-0.041756239 -0.012310235 -0.0094340788
-0.042353958 -0.012407266 -0.0091376035
-0.042787146 -0.012776244 -0.0093667302
-0.043302603 -0.013009249 -0.0093330564
-0.043735314 -0.013377888 -0.0095620342
-0.044333518 -0.01347526 -0.0092657078
-0.044848971 -0.013708265 -0.009232034
-0.045447782 -0.013805787 -0.0089354869
-0.04604701 -0.013903378 -0.0086387321
-0.046562828 -0.014136547 -0.0086050341
-0.050689377 -0.016001897 -0.0083354497
-0.051205192 -0.016235065 -0.0083017517
-0.05172101 -0.016468234 -0.0082680536
-0.054729253 -0.01800135 -0.0083291382
-0.055244889 -0.018234437 -0.0082954513
-0.055586636 -0.018735118 -0.0087877987
-0.056101911 -0.01896804 -0.008754137
-0.056617185 -0.019200964 -0.0087204743
-0.057219919 -0.019300383 -0.0084238518
-0.057823073 -0.019399872 -0.0081270207
-0.0031161562 0.0065233163 -0.0088248402
-0.0036336125 0.0062894071 -0.008791036
-0.0041510691 0.006055498 -0.0087572308
-0.0045992625 0.0056787063 -0.008987301
-0.0050471402 0.0053021796 -0.0092172083
-0.0055642314 0.0050684358 -0.0091834273
-0.0060813231 0.0048346915 -0.0091496455
-0.0065984144 0.0046009473 -0.0091158645
-0.0071155061 0.004367203 -0.0090820836
-0.0078436714 0.0045606219 -0.0082564643
-0.036268208 -0.009505935 -0.0082124071
-0.036623787 -0.010013462 -0.0087055061
-0.0370593 -0.010383542 -0.0089349467
-0.037333451 -0.011026377 -0.0096896254
-0.037768099 -0.011395581 -0.0099183982
-0.038283195 -0.011628423 -0.0098847477
-0.038798291 -0.011861264 -0.0098510971
-0.039313383 -0.012094106 -0.0098174466
-0.039828476 -0.012326947 -0.009783796
-0.040343571 -0.012559787 -0.0097501446
-0.040940378 -0.012656839 -0.0094539886
-0.041537598 -0.012753957 -0.0091576241
-0.042135242 -0.012851144 -0.0088610519
-0.042568509 -0.013219967 -0.0090902755
-0.043083966 -0.013452971 -0.0090566017
-0.043516751 -0.013821454 -0.0092856772
-0.04411488 -0.013918982 -0.0089892531
-0.044630334 -0.014151987 -0.0089555793
-0.045229066 -0.014249666 -0.0086589344
-0.049954765 -0.016212763 -0.0080924984
-0.050470579 -0.016445933 -0.0080588004
-0.050986402 -0.016679101 -0.0080251023
-0.053994898 -0.018212141 -0.0080862716
-0.054510534 -0.018445229 -0.0080525856
-0.055026174 -0.018678317 -0.0080188988
-0.05545491 -0.01904509 -0.0082484195
-0.055883348 -0.019411609 -0.0084777782
-0.056398619 -0.01964453 -0.0084441165
-0.057001278 -0.019744106 -0.0081473971
-0.057516735 -0.01997711 -0.0081137232
-0.0023792118 0.0063117812 -0.0085811177
-0.0028966684 0.0060778717 -0.0085473126
-0.0034141247 0.0058439625 -0.0085135074
-0.003793624 0.0053245383 -0.0090074381
-0.004310715 0.0050907941 -0.0089736562
-0.0048278067 0.0048570493 -0.0089398753
-0.0053448989 0.0046233055 -0.0089060944
-0.0058619902 0.0043895612 -0.0088723134
-0.0063790819 0.004155817 -0.0088385325
-0.0069662216 0.0040642852 -0.0085409051
-0.035016455 -0.0094836075 -0.0080029322
-0.035372917 -0.0099911513 -0.0084961783
-0.035808869 -0.010361238 -0.0087256925
-0.036324687 -0.010594408 -0.0086919954
-0.036519427 -0.01137331 -0.0097094383
-0.037034523 -0.01160615 -0.0096757878
-0.03738869 -0.012110957 -0.010166649
-0.03798404 -0.012207782 -0.0098708458
-0.038418155 -0.012576313 -0.010099395
-0.03893289 -0.012808992 -0.010065767
-0.039447621 -0.013041669 -0.010032141
-0.040125083 -0.013003198 -0.0094738845
-0.040640179 -0.01323604 -0.0094402339
-0.041237086 -0.013333328 -0.009143969
-0.041834414 -0.013430684 -0.0088474955
-0.042267639 -0.013799175 -0.0090766437
-0.042865325 -0.013896694 -0.0087801469
-0.043298189 -0.01426502 -0.0090093184
-0.043896239 -0.014362704 -0.0087127984
-0.044494715 -0.014460457 -0.0084160678
-0.0016422678 0.0061002458 -0.0083373943
-0.0019547346 0.0054379441 -0.0090950988
-0.0024716437 0.0052042818 -0.00906133
-0.0029885531 0.0049706204 -0.0090275602
-0.0035054623 0.0047369581 -0.0089937914
-0.004022372 0.0045032962 -0.0089600217
-0.0046084737 0.0044119195 -0.0086625433
-0.0050561903 0.0040359725 -0.008892484
-0.0055730995 0.0038023104 -0.0088587143
-0.0060900087 0.0035686486 -0.0088249454
-0.033090051 -0.0095023373 -0.0083542708
-0.033606049 -0.0097355889 -0.0083205616
-0.034122046 -0.0099688396 -0.0082868515
-0.034319948 -0.010748895 -0.009305222
-0.034676149 -0.01125448 -0.0097965142
-0.035191063 -0.01148724 -0.0097628757
-0.03570598 -0.011719999 -0.0097292373
-0.036060955 -0.012224548 -0.010219888
-0.036575507 -0.012457144 -0.010186273
-0.037090056 -0.012689741 -0.010152658
-0.037604611 -0.012922337 -0.010119042
-0.038038556 -0.01329036 -0.010347343
-0.038633712 -0.013387529 -0.010051812
-0.039148267 -0.013620126 -0.010018197
-0.039744023 -0.013717446 -0.0097224461
-0.040340196 -0.013814835 -0.0094264876
-0.040936787 -0.013912291 -0.0091303224
-0.041451883 -0.014145133 -0.0090966709
-0.041966975 -0.014377975 -0.0090630203
-0.042646687 -0.014340417 -0.0085036904
-0.043162145 -0.014573421 -0.0084700165
-0.043760356 -0.014671248 -0.0081732022
-0.049347613 -0.017369481 -0.0080659259
-0.04986307 -0.017602487 -0.0080322511
-0.00090532354 0.0058887112 -0.0080936709
-0.0011505951 0.0050841104 -0.0091151837
-0.0016673224 0.0048505305 -0.009081427
-0.0021840497 0.0046169511 -0.0090476694
-0.0027007768 0.0043833712 -0.0090139126
-0.0032175041 0.0041497923 -0.008980155
-0.0036653948 0.0037742022 -0.0092098219
-0.0043200254 0.003824661 -0.0086490186
-0.0048369346 0.0035909992 -0.0086152488
-0.0054233242 0.0034993005 -0.0083176475
-0.0059404154 0.0032655564 -0.0082838666
-0.030807178 -0.0090135252 -0.0082123633
-0.031244736 -0.0093839569 -0.0084419772
-0.031760555 -0.0096171256 -0.0084082792
-0.032118928 -0.01012404 -0.0089007206
-0.032555565 -0.010493691 -0.0091298511
-0.03307084 -0.010726615 -0.0090961885
-0.033506989 -0.011095924 -0.00932517
-0.03394283 -0.011464976 -0.0095539894
-0.034299042 -0.011969703 -0.010044764
-0.034654759 -0.012473725 -0.010534849
-0.035089437 -0.012841646 -0.010762844
-0.03568314 -0.012938591 -0.010467665
-0.036197331 -0.013171024 -0.010434074
-0.036711521 -0.013403457 -0.010400482
-0.037225712 -0.01363589 -0.010366891
-0.037659489 -0.014003403 -0.010594945
-0.038254097 -0.014100756 -0.010299708
-0.038849123 -0.014198177 -0.010004263
-0.039444562 -0.014295666 -0.0097086113
-0.039959114 -0.014528262 -0.0096749961
-0.0406367 -0.014490849 -0.009116685
-0.041233394 -0.014588544 -0.0088204108
-0.04174849 -0.014821385 -0.0087867603
-0.042428046 -0.014784139 -0.0082272356
-0.042943504 -0.015017144 -0.0081935618
-0.0004824044 0.0050153206 -0.008608168
-0.00093141675 0.0046392935 -0.0088380473
-0.001448144 0.0044057141 -0.0088042896
-0.0019648711 0.0041721342 -0.0087705329
-0.0024132032 0.0037965367 -0.0090002725
-0.0028612197 0.0034212037 -0.0092298519
-0.0034462935 0.0033295422 -0.0089327823
-0.003962839 0.0030960448 -0.0088990368
-0.0046176789 0.0031460256 -0.0083380146
-0.0052039907 0.0030541704 -0.0080403155
-0.030353922 -0.0098687476 -0.0087252883
-0.030869378 -0.010101752 -0.0086916145
-0.031228127 -0.01060797 -0.0091835111
-0.031743221 -0.010840812 -0.0091498606
-0.032101106 -0.011346155 -0.0096410895
-0.032537133 -0.011714859 -0.0098696388
-0.033051684 -0.011947456 -0.0098360237
-0.033408273 -0.012451491 -0.010326256
-0.033922467 -0.012683924 -0.010292663
-0.034357399 -0.013051772 -0.010520744
-0.034792028 -0.013419362 -0.010748664
-0.035305854 -0.013651633 -0.010715096
-0.035899431 -0.013748827 -0.010420004
-0.036413442 -0.013981179 -0.010386424
-0.03692745 -0.01421353 -0.010352844
-0.037280951 -0.01471545 -0.010842199
-0.037875008 -0.014812984 -0.010547255
-0.038550183 -0.014775823 -0.0099903392
-0.039226308 -0.01473861 -0.0094326409
-0.039740857 -0.014971207 -0.0093990257
-0.040336821 -0.015069001 -0.0091030579
-0.041014913 -0.015031955 -0.0085441498
-0.041611951 -0.015129874 -0.0082475692
0.00025376061 0.0048040096 -0.0083647026
-0.00026314869 0.0045703473 -0.0083309337
-0.00071223825 0.0041944771 -0.0085609099
-0.0011610114 0.0038188715 -0.0087907249
-0.0016094687 0.0034435303 -0.009020377
-0.002125832 0.0032101152 -0.0089866435
-0.0026421954 0.0029767 -0.0089529101
-0.0031585589 0.0027432849 -0.0089191766
-0.0037437375 0.0026513848 -0.0086219981
-0.028073458 -0.0093804505 -0.0085835308
-0.02843417 -0.0098871747 -0.0090755019
-0.028949264 -0.010120017 -0.0090418523
-0.029542064 -0.010216209 -0.0087454468
-0.030057341 -0.010449132 -0.0087117841
-0.030416533 -0.010954929 -0.0092034945
-0.030853305 -0.011323899 -0.0094322767
-0.031211562 -0.011828549 -0.0099229645
-0.031725932 -0.012061064 -0.0098893605
-0.032161787 -0.012429259 -0.010117661
-0.032675978 -0.012661692 -0.01008407
-0.033111352 -0.013029546 -0.010312224
-0.033625357 -0.013261899 -0.010278644
-0.033902157 -0.01389946 -0.01102927
-0.034415625 -0.014131568 -0.010995724
-0.035008475 -0.014228863 -0.010700938
-0.035601739 -0.014326226 -0.010405945
-0.036195416 -0.014423657 -0.010110744
-0.036709424 -0.014656009 -0.010077165
-0.037063077 -0.015157619 -0.010566712
-0.037576728 -0.015389808 -0.010533157
-0.038332082 -0.015218456 -0.0097145624
-0.03892713 -0.015316269 -0.0094189132
-0.039522603 -0.01541415 -0.0091230553
-0.040118489 -0.0155121 -0.0088269915
-0.040878113 -0.015340517 -0.0080048731
-0.056502812 -0.023089824 -0.0080137551
0.00047301632 0.0043590358 -0.0080874683
-4.3892986e-05 0.0041253739 -0.0080536986
-0.00049305981 0.0037496604 -0.0082837725
-0.00080629991 0.0030907723 -0.0090404674
-0.0013904445 0.0029990268 -0.0087434351
-0.0019068079 0.002765612 -0.0087097017
-0.0024231712 0.0025321967 -0.0086759683
-0.0028710265 0.0021574404 -0.0089055803
-0.003455898 0.0020653666 -0.0086085014
-0.027339363 -0.0095911678 -0.008340749
-0.027469654 -0.010507382 -0.0096202344
-0.027907155 -0.01087625 -0.0098487111
-0.028498758 -0.010972573 -0.0095530041
-0.02901331 -0.011205169 -0.0095193889
-0.029527862 -0.011437766 -0.0094857737
-0.029886924 -0.011942159 -0.009976252
-0.030323269 -0.012310267 -0.010204442
-0.030837281 -0.012542618 -0.010170862
-0.031273142 -0.012910387 -0.010398906
-0.031786971 -0.013142657 -0.010365337
-0.0323008 -0.013374927 -0.010331769
-0.032735996 -0.013742276 -0.010559676
-0.03317089 -0.014109366 -0.010787423
-0.033684362 -0.014341474 -0.010753878
-0.03419783 -0.014573581 -0.010720334
-0.034711305 -0.014805689 -0.01068679
-0.035304252 -0.01490322 -0.010391895
-0.035897616 -0.015000819 -0.010096793
-0.036411449 -0.015233089 -0.010063224
-0.036845203 -0.015599786 -0.010291225
-0.037358858 -0.015831975 -0.01025767
-0.038113978 -0.015661091 -0.0094387857
-0.038708955 -0.015759058 -0.0091430396
-0.039385427 -0.015722523 -0.0085845506
-0.039981473 -0.015820615 -0.0082881926
-0.05619758 -0.023664555 -0.0080005247
-0.058167428 -0.024725983 -0.0081287129
0.00031028152 0.0033965462 -0.0083041359
-7.1171271e-05 0.0028797584 -0.0087973438
-0.0005873529 0.0026464253 -0.0087636234
-0.0011714204 0.0025545235 -0.0084664933
-0.0016877837 0.0023211082 -0.0084327599
-0.0022041472 0.0020876932 -0.0083990255
-0.0026520793 0.0017130935 -0.0086287363
-0.0032368738 0.0016208631 -0.0083315596
-0.026375322 -0.010212121 -0.0088866381
-0.026660232 -0.01085401 -0.0096400445
-0.027097864 -0.011222628 -0.0098684328
-0.027612055 -0.011455061 -0.0098348409
-0.028126245 -0.011687493 -0.00980125
-0.028486036 -0.012191359 -0.010291163
-0.028999869 -0.012423629 -0.010257594
-0.029436219 -0.01279131 -0.010485527
-0.029949872 -0.013023499 -0.01045197
-0.030463522 -0.013255687 -0.010418414
-0.030977173 -0.013487877 -0.010384859
-0.031490821 -0.013720066 -0.010351301
-0.031926148 -0.014087164 -0.010579121
-0.032439619 -0.014319272 -0.010545577
-0.032874461 -0.014686032 -0.01077325
-0.033387758 -0.014918058 -0.010739717
-0.033980034 -0.015015595 -0.010444944
-0.034493502 -0.015247703 -0.010411398
-0.035006978 -0.01547981 -0.010377854
-0.035600029 -0.015577578 -0.010082851
-0.036193497 -0.015675412 -0.0097876415
-0.03662733 -0.016041957 -0.010015738
-0.03722116 -0.016139954 -0.0097205052
-0.037895873 -0.016103724 -0.009163009
-0.03865236 -0.015932944 -0.0083421106
-0.03924815 -0.016031111 -0.0080456678
-0.055378374 -0.024006449 -0.0080208937
-0.057861827 -0.025299735 -0.0081154509
0.00059669383 0.0028102654 -0.0082907528
0.00014777579 0.0024354113 -0.0085204998
-0.00036840586 0.0022020782 -0.0084867785
-0.00088458747 0.0019687454 -0.0084530562
-0.0014007691 0.0017354124 -0.0084193358
-0.0019169507 0.0015020795 -0.0083856136
-0.0024331324 0.0012687464 -0.0083518913
-0.025565717 -0.010559096 -0.0089067183
-0.025927683 -0.011064284 -0.009397774
-0.026289141 -0.011568761 -0.0098881405
-0.026803153 -0.011801114 -0.0098545607
-0.027317161 -0.012033465 -0.009820981
-0.027754257 -0.012401412 -0.010049147
-0.028191043 -0.0127691 -0.010277152
-0.028627528 -0.013136532 -0.010504998
-0.029140998 -0.01336864 -0.010471454
-0.029422209 -0.01400542 -0.011221089
-0.030167941 -0.013832855 -0.010404364
-0.030681409 -0.014064962 -0.01037082
-0.031194881 -0.014297071 -0.010337275
-0.031630158 -0.014663839 -0.01056502
-0.032065131 -0.01503035 -0.010792607
-0.03265674 -0.015127891 -0.010497956
-0.033012733 -0.015628468 -0.010986524
-0.033683326 -0.015591944 -0.010430889
-0.034275707 -0.015689716 -0.010136008
-0.034789179 -0.015921824 -0.010102464
-0.03530265 -0.01615393 -0.01006892
-0.035895806 -0.016251935 -0.0097738076
-0.036489379 -0.016350007 -0.0094784899
-0.037083365 -0.016448148 -0.0091829645
-0.037758224 -0.01641212 -0.0086248964
-0.054559734 -0.024348104 -0.0080412505
-0.055073746 -0.024580456 -0.0080076708
0.00081571791 0.0023657619 -0.00801381
0.0005013172 0.0017087974 -0.0087702572
-1.4501324e-05 0.0014756286 -0.0087365592
-0.0006656404 0.0015243983 -0.0081762122
-0.0011139563 0.0011501285 -0.0084059201
-0.024469664 -0.010263769 -0.0081723621
-0.024832653 -0.010769518 -0.0086642783
-0.024967153 -0.011682384 -0.0099414038
-0.025480984 -0.011914654 -0.0099078361
-0.025994813 -0.012146924 -0.0098742675
-0.026508646 -0.012379195 -0.0098406989
-0.027022475 -0.012611465 -0.0098071322
-0.027382787 -0.01311433 -0.010296697
-0.027896259 -0.013346437 -0.010263152
-0.028332692 -0.013713538 -0.010490924
-0.028614653 -0.014349734 -0.011240277
-0.029127406 -0.014581517 -0.01120678
-0.029717574 -0.014678834 -0.010912479
-0.030230505 -0.014910698 -0.010878969
-0.030821264 -0.015008164 -0.01058445
-0.031334378 -0.015240109 -0.01055093
-0.031847488 -0.015472054 -0.010517408
-0.032282233 -0.015838156 -0.010744932
-0.032795165 -0.016070019 -0.010711422
-0.033308096 -0.016301882 -0.010677912
-0.034057911 -0.016131729 -0.009860618
-0.034571379 -0.016363837 -0.0098270727
