# .PCD v0.7 - Point Cloud Data file format
VERSION 0.7
FIELDS x y z
SIZE 4 4 4
TYPE F F F
COUNT 1 1 1
WIDTH 1236
HEIGHT 1
VIEWPOINT 0 0 0 1 0 0 0
POINTS 1236
DATA ascii
-0.045533631 -0.0032381655 -0.046392627
-0.045077991 -0.002738303 -0.046686597
-0.044491805 -0.0024569097 -0.046680562
-0.043643016 -0.0026119479 -0.046074271
-0.043056358 -0.0023303269 -0.046068233
-0.10934262 -0.034201268 -0.045691125
-0.10896561 -0.033457294 -0.04628614
-0.10837896 -0.033175673 -0.046280101
-0.1077923 -0.032894053 -0.046274062
-0.10752233 -0.031921674 -0.047167812
-0.10693639 -0.031640396 -0.04716178
-0.10624449 -0.031588953 -0.046856061
-0.10565831 -0.031307559 -0.046850026
-0.10496561 -0.031255964 -0.046544053
-0.10448594 -0.030744774 -0.046837959
-0.10400666 -0.030233996 -0.047131628
-0.10342071 -0.029952714 -0.047125597
-0.10283477 -0.029671436 -0.047119565
-0.10235634 -0.029161299 -0.047412999
-0.10209338 -0.028195005 -0.048303925
-0.10140066 -0.028142259 -0.047999159
-0.10081542 -0.027861319 -0.047993135
-0.10001351 -0.028036635 -0.047388885
-0.0993191 -0.027983759 -0.047083378
-0.098624125 -0.027930839 -0.046777625
-0.097928591 -0.027877878 -0.046471622
-0.097232483 -0.027824873 -0.046165373
-0.096645825 -0.027543252 -0.046159334
-0.095617659 -0.028176581 -0.044949993
-0.094697259 -0.028582323 -0.044038896
-0.094108939 -0.028299902 -0.044032842
-0.093185574 -0.028706288 -0.043119516
-0.092372246 -0.028883431 -0.042507369
-0.091557592 -0.029060863 -0.041894227
-0.090967588 -0.028777637 -0.041888151
-0.090377592 -0.028494412 -0.041882083
-0.089674175 -0.028441334 -0.041572094
-0.088970169 -0.028388213 -0.041261856
-0.08815141 -0.028565532 -0.040646698
-0.087331325 -0.028743137 -0.040030535
-0.086739875 -0.028459219 -0.040024448
-0.086148433 -0.0281753 -0.040018365
-0.085556991 -0.027891381 -0.040012274
-0.084502287 -0.028530454 -0.038783003
-0.083677202 -0.028708469 -0.038163804
-0.083200939 -0.028192677 -0.038464379
-0.082608283 -0.027908178 -0.03845828
-0.082015634 -0.027623678 -0.038452178
-0.081422985 -0.027339177 -0.03844608
-0.080712728 -0.027285391 -0.038133293
-0.080119833 -0.027000774 -0.038127191
-0.079290479 -0.027177682 -0.037506949
-0.078697108 -0.026892833 -0.037500843
-0.078103721 -0.026607985 -0.037494734
-0.077748261 -0.025862312 -0.03810278
-0.077155367 -0.025577698 -0.038096678
-0.076443076 -0.025523167 -0.037783619
-0.075849935 -0.025238434 -0.037777517
-0.075136825 -0.025183743 -0.037464194
-0.074543439 -0.024898894 -0.037458088
-0.073829509 -0.024844039 -0.037144512
-0.073356681 -0.024329195 -0.037445873
-0.072763309 -0.024044348 -0.037439767
-0.072412208 -0.023300773 -0.038047854
-0.071819313 -0.023016155 -0.038041756
-0.0713479 -0.022502691 -0.038342379
-0.070876867 -0.021989645 -0.038642757
-0.070162587 -0.021933693 -0.038330182
-0.069447741 -0.021877693 -0.038017344
-0.068854846 -0.021593079 -0.038011242
-0.068507224 -0.020852113 -0.038618371
-0.067669049 -0.021023845 -0.037999038
-0.067199335 -0.020511197 -0.03829968
-0.066483259 -0.020454615 -0.03798683
-0.066014029 -0.019942198 -0.038287479
-0.065545179 -0.019430198 -0.038587879
-0.065076709 -0.018918617 -0.038888037
-0.064856485 -0.017954217 -0.03979921
-0.064265035 -0.017670298 -0.039793126
-0.063797854 -0.017160269 -0.040092301
-0.063331053 -0.016650656 -0.040391233
-0.062989071 -0.015916133 -0.040994439
-0.062772021 -0.014958143 -0.041900449
-0.062431186 -0.014226488 -0.042501204
-0.061841909 -0.013943607 -0.042495139
-0.061252628 -0.013660727 -0.042489074
-0.060538221 -0.013601683 -0.042179711
-0.060074069 -0.013094967 -0.042476945
-0.059735708 -0.012365419 -0.043076742
-0.059272446 -0.011859822 -0.043373249
-0.058683883 -0.011577286 -0.043367192
-0.058221243 -0.011072214 -0.043663461
-0.05813653 -0.0099019082 -0.044864267
-0.057800829 -0.0091773085 -0.045460191
-0.057213936 -0.0088955723 -0.045454152
-0.056879252 -0.0081723742 -0.046049114
-0.056922764 -0.0067908936 -0.047541361
-0.056337528 -0.0065099546 -0.047535338
-0.055373222 -0.0068877847 -0.046631057
-0.054787278 -0.0066065048 -0.046625026
-0.054328267 -0.0061056856 -0.04691866
-0.053615388 -0.0060439459 -0.046612963
-0.05302944 -0.005762666 -0.046606932
-0.05257114 -0.0052621877 -0.046900574
-0.052113209 -0.0047621131 -0.047193982
-0.051527735 -0.0044810609 -0.047187954
-0.050814014 -0.0044186898 -0.046882488
-0.050099716 -0.0043562679 -0.046576779
-0.049255807 -0.0045127803 -0.045970649
-0.048540007 -0.0044503207 -0.045664199
-0.048082966 -0.003949766 -0.045958575
-0.047626298 -0.0034496156 -0.04625272
-0.047040112 -0.0031682223 -0.046246685
-0.04645393 -0.002886829 -0.046240654
-0.045867749 -0.0026054354 -0.046234619
-0.045412157 -0.0021060307 -0.046528529
-0.044956934 -0.0016070295 -0.046822205
-0.044371225 -0.0013258635 -0.046816178
-0.043654319 -0.0012621918 -0.046510436
-0.042805195 -0.001416201 -0.045904256
-0.042086788 -0.0013524885 -0.045597777
-0.10272215 -0.065396436 -0.0080007855
-0.10992431 -0.034531176 -0.044636026
-0.10975602 -0.033324324 -0.045833796
-0.10916936 -0.033042699 -0.045827761
-0.10858271 -0.032761078 -0.045821723
-0.10799604 -0.032479458 -0.045815684
-0.10772582 -0.031507581 -0.046709988
-0.10724542 -0.030996701 -0.04700359
-0.10676541 -0.030486234 -0.047296952
-0.10586189 -0.0308933 -0.046392016
-0.10527571 -0.030611906 -0.046385981
-0.1047961 -0.030101182 -0.046679832
-0.10431688 -0.029590869 -0.046973445
-0.10405155 -0.028624058 -0.047864906
-0.10368019 -0.027887281 -0.048456009
-0.10309565 -0.027606683 -0.048449989
-0.10240389 -0.027553739 -0.048145525
-0.10181912 -0.027273027 -0.048139513
-0.10112656 -0.027219929 -0.047834802
-0.10043343 -0.027166788 -0.047529843
-0.099522591 -0.027569665 -0.046625555
-0.098827697 -0.027516579 -0.046319615
-0.098132245 -0.027463449 -0.046013426
-0.097436227 -0.027410278 -0.045706999
-0.096409343 -0.028043393 -0.044496916
-0.095600598 -0.028219566 -0.043887384
-0.094901584 -0.028166549 -0.043579213
-0.094090641 -0.028343039 -0.042968187
-0.0931665 -0.028749807 -0.04205282
-0.092464782 -0.028696876 -0.041743156
-0.091762498 -0.028643904 -0.041433234
-0.091059633 -0.02859089 -0.041123066
-0.090356201 -0.028537828 -0.040812645
-0.089652188 -0.028484726 -0.040501967
-0.08883366 -0.028662195 -0.039885942
-0.088128164 -0.028609078 -0.039574504
-0.087307386 -0.028786866 -0.038956966
-0.08694528 -0.028041238 -0.039562333
-0.086353838 -0.027757321 -0.039556243
-0.085300446 -0.028396176 -0.038326226
-0.084592067 -0.028342841 -0.038013514
-0.08399941 -0.028058343 -0.038007416
-0.083406761 -0.027773844 -0.038001318
-0.082463458 -0.028182577 -0.037073854
-0.082104422 -0.027435618 -0.037682243
-0.081276692 -0.02761288 -0.037061639
-0.08091864 -0.026866386 -0.037670039
-0.080089934 -0.027043182 -0.037049424
-0.079378262 -0.026989209 -0.03673568
-0.078784645 -0.026704242 -0.036729567
-0.078191027 -0.026419276 -0.036723461
-0.077954166 -0.025443308 -0.037639525
-0.077242203 -0.025388721 -0.037326284
-0.076529667 -0.025334092 -0.037012778
-0.07593628 -0.025049241 -0.037006672
-0.075342901 -0.024764394 -0.037000563
-0.074629284 -0.024709485 -0.0366868
-0.073915094 -0.024654532 -0.036372781
-0.073321223 -0.02436945 -0.036366668
-0.072848417 -0.023854589 -0.036668472
-0.072375998 -0.023340151 -0.036970027
-0.071782626 -0.023055302 -0.036963921
-0.07118924 -0.022770455 -0.036957812
-0.070839435 -0.022027919 -0.037566297
-0.070246533 -0.021743305 -0.037560191
-0.069653645 -0.021458689 -0.037554093
-0.06906075 -0.021174071 -0.037547991
-0.068467855 -0.020889457 -0.037541885
-0.067874961 -0.020604841 -0.037535787
-0.067405157 -0.020092363 -0.037836615
-0.066689171 -0.02003561 -0.037523579
-0.066219859 -0.019523364 -0.037824418
-0.065627202 -0.019238865 -0.037818316
-0.065158509 -0.018727154 -0.038118906
-0.064690202 -0.018215859 -0.038419258
-0.064222269 -0.017704982 -0.03871936
-0.063630342 -0.017420832 -0.038713269
-0.063163042 -0.01691049 -0.039013125
-0.062820777 -0.016174855 -0.039618198
-0.062479068 -0.015440419 -0.040222283
-0.062635839 -0.013810038 -0.042040776
-0.062046561 -0.013527158 -0.042034712
-0.061207566 -0.013692023 -0.041421432
-0.060617805 -0.013408912 -0.041415364
-0.060278725 -0.012678516 -0.042016514
-0.05981487 -0.012172381 -0.042313691
-0.059225831 -0.011889616 -0.04230763
-0.058762588 -0.011384007 -0.042604569
-0.058299728 -0.010878808 -0.042901263
-0.057963215 -0.010151946 -0.043499991
-0.057501242 -0.0096478611 -0.043795962
-0.057291821 -0.0087017557 -0.044694535
-0.057082914 -0.0077579455 -0.045590922
-0.057000313 -0.0065967734 -0.046784736
-0.056414839 -0.0063157217 -0.046778709
-0.055829369 -0.006034669 -0.046772681
-0.055117387 -0.0059729251 -0.046467051
-0.054531679 -0.0056917598 -0.04646102
-0.053818882 -0.0056298524 -0.04615514
-0.053360261 -0.0051294276 -0.046448968
-0.052774552 -0.0048482614 -0.046442937
-0.05244413 -0.0041297898 -0.047035903
-0.05198662 -0.003630576 -0.047329016
-0.051145595 -0.0037862493 -0.046724476
-0.050560124 -0.0035051969 -0.046718448
-0.049588416 -0.0038795348 -0.045812812
-0.049002234 -0.0035981415 -0.045806777
-0.048416052 -0.0033167482 -0.045800742
-0.048088886 -0.0025989332 -0.046394709
-0.047373485 -0.0025357762 -0.0460888
-0.046787541 -0.0022544966 -0.046082769
-0.046461824 -0.0015378296 -0.046676267
-0.04587635 -0.0012567772 -0.046670239
-0.045551628 -0.00054149388 -0.047262784
-0.044966631 -0.00026066828 -0.047256764
-0.04438163 2.015736e-05 -0.04725074
-0.043665599 8.4295323e-05 -0.04694555
-0.043080363 0.00036523433 -0.046939526
-0.11102892 -0.033703942 -0.045086727
-0.1106507 -0.032960672 -0.045681987
-0.11006428 -0.032679167 -0.045675952
-0.10947787 -0.032397658 -0.045669917
-0.10889145 -0.032116149 -0.045663878
-0.10830503 -0.031834643 -0.045657843
-0.10792932 -0.031093488 -0.046252161
-0.10765951 -0.030124463 -0.047144856
-0.10728507 -0.029386181 -0.047736779
-0.10670031 -0.02910547 -0.047730759
-0.10611555 -0.028824756 -0.047724739
-0.10553078 -0.028544044 -0.047718722
-0.10494602 -0.02826333 -0.047712702
-0.10457408 -0.027527144 -0.048303694
-0.10398979 -0.027246658 -0.048297677
-0.10329865 -0.027193593 -0.047993276
-0.10260697 -0.027140481 -0.047688629
-0.1020222 -0.02685977 -0.047682609
-0.10122192 -0.027034134 -0.047078598
-0.10042033 -0.027208783 -0.046473611
-0.099617459 -0.027383711 -0.045867641
-0.098922327 -0.027330529 -0.045561273
-0.098226629 -0.027277302 -0.045254655
-0.097310893 -0.027681293 -0.044345401
-0.09639293 -0.028086267 -0.043433942
-0.095583521 -0.028262619 -0.042823043
-0.094883926 -0.028209578 -0.042514194
-0.094183758 -0.028156493 -0.042205092
-0.093371242 -0.028333187 -0.041592207
-0.092669599 -0.028280089 -0.041282352
-0.091854855 -0.028457101 -0.040667962
-0.091151752 -0.028403988 -0.040357355
-0.090334773 -0.028581318 -0.03974146
-0.089516453 -0.028758936 -0.03912456
-0.088810958 -0.028705837 -0.038812689
-0.088104881 -0.028652694 -0.038500566
-0.087512955 -0.028368544 -0.038494468
-0.086575843 -0.028777506 -0.037568752
-0.085983194 -0.028493008 -0.037562653
-0.085274808 -0.028439691 -0.037249506
-0.084681913 -0.028155075 -0.0372434
-0.084089018 -0.027870459 -0.037237298
-0.083496124 -0.027585844 -0.037231192
-0.082669534 -0.027763229 -0.036610223
-0.082076155 -0.027478382 -0.036604114
-0.081482776 -0.027193533 -0.036598008
-0.080889396 -0.026908685 -0.036591899
-0.080178052 -0.026854655 -0.036277968
-0.079466127 -0.026800578 -0.035963781
-0.078872263 -0.026515497 -0.035957668
-0.0782784 -0.026230415 -0.035951555
-0.077803567 -0.025714792 -0.036253527
-0.077209935 -0.025429826 -0.036247417
-0.076616317 -0.025144862 -0.036241308
-0.076022699 -0.024859896 -0.036235198
-0.075548984 -0.024345048 -0.036536928
-0.074594855 -0.024750067 -0.03560653
-0.074000746 -0.024464868 -0.035600413
-0.073406637 -0.024179671 -0.035594299
-0.072933599 -0.023664678 -0.035896543
-0.072460957 -0.023150105 -0.036198542
-0.071867332 -0.022865139 -0.036192428
-0.071273714 -0.022580173 -0.036186319
-0.070558146 -0.022524349 -0.035872094
-0.070452444 -0.021324299 -0.03709694
-0.069859557 -0.021039683 -0.037090838
-0.069144279 -0.020983297 -0.036777366
-0.06842842 -0.020926863 -0.036463641
-0.067835048 -0.020642014 -0.036457535
-0.067487977 -0.019901222 -0.03706643
-0.066895083 -0.019616606 -0.037060324
-0.066425681 -0.019104531 -0.03736135
-0.065833032 -0.018820032 -0.037355252
-0.065240368 -0.018535532 -0.037349153
-0.064771846 -0.018024107 -0.037649937
-0.064303689 -0.017513102 -0.037950478
-0.063711517 -0.017228834 -0.03794438
-0.063119352 -0.016944567 -0.037938286
-0.062652066 -0.016434209 -0.038238585
-0.062434893 -0.015473243 -0.039150182
-0.062218253 -0.014514623 -0.040059552
-0.062002145 -0.013558345 -0.040966701
-0.061287455 -0.013499211 -0.040656466
-0.060697455 -0.013215985 -0.040650394
-0.060232867 -0.012709013 -0.040948492
-0.059768654 -0.012202454 -0.041246343
-0.059179135 -0.011919458 -0.041240275
-0.058841359 -0.01119057 -0.041841324
-0.058378275 -0.010685245 -0.042138454
-0.057915568 -0.010180329 -0.042435341
-0.057705395 -0.0092324251 -0.043336656
-0.057117552 -0.0089502325 -0.043330606
-0.0569086 -0.0080049746 -0.044229738
-0.056700155 -0.00706201 -0.045126695
-0.056492217 -0.0061213314 -0.046021469
-0.056158792 -0.0054018316 -0.046614777
-0.055320799 -0.0055589993 -0.04600941
-0.054988321 -0.004839954 -0.04660273
-0.054022375 -0.0052157589 -0.04569732
-0.053817853 -0.0042780759 -0.046590682
-0.053232618 -0.0039971364 -0.046584658
-0.052902088 -0.0032799314 -0.047177032
-0.052317325 -0.0029992189 -0.047171012
-0.051604785 -0.002936325 -0.04686591
-0.051019788 -0.0026554994 -0.04685989
-0.050177984 -0.0028103855 -0.04625497
-0.04984979 -0.0020938483 -0.046847846
-0.04900704 -0.0022482804 -0.046242915
-0.048550732 -0.0017496247 -0.046536468
-0.047836099 -0.0016861756 -0.046230864
-0.047380261 -0.0011877466 -0.04652442
-0.046924792 -0.00068972009 -0.046817742
-0.046469692 -0.00019209523 -0.047110826
-0.04588493 8.8617126e-05 -0.047104806
-0.045300167 0.00036932947 -0.047098786
-0.044845905 0.00086632668 -0.047391638
-0.044261374 0.0011469258 -0.047385626
-0.043545876 0.0012114665 -0.047080729
-0.04269838 0.0010597653 -0.04647623
-0.11178327 -0.035242792 -0.042829402
-0.11192347 -0.033339992 -0.044935156
-0.11206287 -0.03144794 -0.047029011
-0.1117885 -0.030480051 -0.047919326
-0.11120421 -0.030199565 -0.047913309
-0.10978613 -0.031753138 -0.045512199
-0.1093047 -0.031241952 -0.045806404
-0.10871876 -0.030960672 -0.045800373
-0.10855288 -0.029762987 -0.046992887
-0.10807292 -0.029253636 -0.047285896
-0.10769846 -0.028516648 -0.047877226
-0.1073246 -0.027780849 -0.048467606
-0.1068461 -0.027273322 -0.048759434
-0.10615695 -0.027220329 -0.048455589
-0.10546725 -0.027167296 -0.048151497
-0.104777 -0.027114218 -0.047847155
-0.1041927 -0.026833732 -0.047841143
-0.10350166 -0.026780501 -0.047536559
-0.10281005 -0.026727224 -0.047231726
-0.10222529 -0.02644651 -0.047225706
-0.10120945 -0.027076021 -0.046021998
-0.10040722 -0.027250843 -0.045415666
-0.099712402 -0.027197607 -0.045109112
-0.099017031 -0.027144328 -0.044802316
-0.097992696 -0.027777011 -0.043590769
-0.097185247 -0.027952969 -0.0429805
-0.096376486 -0.028129211 -0.042369232
-0.095677204 -0.028076116 -0.0420602
-0.094977371 -0.028022977 -0.041750915
-0.094053939 -0.028429521 -0.040833686
-0.093352303 -0.028376438 -0.040523399
-0.092762299 -0.028093213 -0.040517326
-0.092059843 -0.028039973 -0.040206783
-0.091130964 -0.028447367 -0.039285801
-0.090199813 -0.028855756 -0.038362559
-0.08949431 -0.028802678 -0.038050249
-0.088788226 -0.028749552 -0.037737686
-0.088081568 -0.028696384 -0.037424866
-0.087374322 -0.028643174 -0.037111785
-0.086666502 -0.028589917 -0.036798455
-0.085842513 -0.028768126 -0.036177129
-0.085249133 -0.028483277 -0.036171015
-0.084539577 -0.028429892 -0.035856914
-0.08429493 -0.027451454 -0.036774043
-0.083468996 -0.027628731 -0.036152694
-0.082875609 -0.027343882 -0.036146589
-0.082165085 -0.027290029 -0.035832472
-0.08157146 -0.027005063 -0.035826366
-0.080977835 -0.026720099 -0.035820257
-0.080030002 -0.027128208 -0.034888592
-0.079554059 -0.026611796 -0.035191245
-0.078841291 -0.026557578 -0.034876354
-0.07836584 -0.026041398 -0.035179015
-0.077771731 -0.025756199 -0.035172902
-0.077177621 -0.025470998 -0.035166785
-0.076583512 -0.025185801 -0.035160672
-0.07586953 -0.025130996 -0.034845769
-0.075275175 -0.024845682 -0.034839649
-0.074680828 -0.024560366 -0.034833536
-0.074207075 -0.024045005 -0.035136212
-0.073612966 -0.023759808 -0.035130095
-0.073018856 -0.023474608 -0.035123982
-0.072545983 -0.022959903 -0.035426419
-0.071952119 -0.022674821 -0.035420306
-0.071236528 -0.022619011 -0.035105638
-0.070642419 -0.022333812 -0.035099521
-0.07004831 -0.022048615 -0.035093408
-0.069576651 -0.021534493 -0.035395853
-0.069105387 -0.021020794 -0.035698056
-0.068511762 -0.020735828 -0.035691947
-0.068041123 -0.020222666 -0.0359939
-0.067447737 -0.019937819 -0.035987794
-0.066854365 -0.01965297 -0.035981685
-0.066508092 -0.018912984 -0.036590967
-0.065915197 -0.01862837 -0.036584865
-0.065446198 -0.0181167 -0.036886089
-0.064853549 -0.017832199 -0.03687999
-0.064509347 -0.01709461 -0.03748779
-0.063792758 -0.01703668 -0.037174866
-0.06295073 -0.017205292 -0.036554355
-0.062482942 -0.016694203 -0.036855586
-0.062265709 -0.015731739 -0.037769996
-0.062173884 -0.014546679 -0.038987756
-0.061832845 -0.013813869 -0.039592106
-0.061117213 -0.013754767 -0.039280932
-0.060526498 -0.013471195 -0.039274853
-0.059935775 -0.013187623 -0.039268773
-0.059847929 -0.012009114 -0.040481616
-0.059383873 -0.011502839 -0.040779658
-0.058794353 -0.011219844 -0.040773593
-0.058582764 -0.010269132 -0.041678399
-0.057993963 -0.0099864816 -0.041672338
-0.057783607 -0.0090384297 -0.042574946
-0.057195522 -0.0087561226 -0.042568896
-0.056733862 -0.0082526039 -0.042865247
-0.056651622 -0.0070878104 -0.044066377
-0.056443576 -0.0061463397 -0.044963162
-0.056236032 -0.0052071507 -0.045857776
-0.055650558 -0.0049260985 -0.045851748
-0.055191569 -0.0044263615 -0.046145458
-0.054479618 -0.0043639936 -0.045839697
-0.054274701 -0.0034280976 -0.046732169
-0.053689938 -0.0031473851 -0.046726152
-0.053232294 -0.0026489701 -0.047019154
-0.052647766 -0.002368371 -0.047013134
-0.052063238 -0.0020877717 -0.047007117
-0.05147871 -0.0018071725 -0.047001101
-0.050894186 -0.0015265734 -0.046995088
-0.050437853 -0.0010290125 -0.047287859
-0.049725126 -0.00096537499 -0.046983056
-0.049140602 -0.00068477582 -0.046977039
-0.048556071 -0.00040417668 -0.046971019
-0.04810068 9.2931958e-05 -0.047263805
-0.047516391 0.00037341804 -0.047257792
-0.046932098 0.00065390416 -0.047251776
-0.046347804 0.00093439018 -0.047245767
-0.045763515 0.0012148763 -0.047239751
-0.045309432 0.0017111324 -0.047532309
-0.044725377 0.0019915055 -0.0475263
-0.044141319 0.0022718785 -0.047520287
-0.043295328 0.0021212159 -0.046916872
-0.041921027 0.0011052074 -0.045112841
-0.11267968 -0.034877334 -0.042678379
-0.11292062 -0.032745842 -0.045084357
-0.11274789 -0.031544793 -0.046278507
-0.11257572 -0.030347612 -0.047468808
-0.11250706 -0.028926536 -0.048952796
-0.11202706 -0.028419159 -0.04924408
-0.11113388 -0.028821927 -0.048345502
-0.10992604 -0.029911213 -0.046547845
-0.10934105 -0.029630387 -0.046541821
-0.10886077 -0.029121088 -0.046835013
-0.10848567 -0.028384211 -0.047426708
-0.10821595 -0.027421189 -0.048315469
-0.10763236 -0.027141042 -0.048309464
-0.10715393 -0.026633976 -0.04860124
-0.10657058 -0.02635394 -0.048595235
-0.10577589 -0.026527477 -0.047993414
-0.10508604 -0.026474163 -0.047689136
-0.10439563 -0.026420807 -0.047384612
-0.10381133 -0.026140321 -0.047378596
-0.10301314 -0.026313964 -0.046774827
-0.10199858 -0.026943263 -0.045570388
-0.1010889 -0.027346194 -0.04466299
-0.10039408 -0.027292972 -0.044356011
-0.099480979 -0.027696984 -0.043445669
-0.09878438 -0.02764382 -0.043137696
-0.097867839 -0.028048912 -0.042224392
-0.097169451 -0.027995806 -0.041915424
-0.096360013 -0.028172227 -0.0413028
-0.095549271 -0.028348936 -0.040689174
-0.094737194 -0.028525932 -0.040074553
-0.094147198 -0.028242705 -0.040068481
-0.093333326 -0.028419759 -0.039452855
-0.092742853 -0.028136306 -0.039446779
-0.091927171 -0.028313415 -0.038830139
-0.090883739 -0.028952658 -0.03759994
-0.090178214 -0.028899593 -0.037287191
-0.089586049 -0.028615328 -0.037281092
-0.088879712 -0.028562104 -0.036968086
-0.087943509 -0.02897164 -0.036039736
-0.087465309 -0.028455527 -0.036341306
-0.086641967 -0.028633626 -0.0357196
-0.086048588 -0.028348777 -0.035713494
-0.085339352 -0.028295338 -0.035399206
-0.084629551 -0.028241852 -0.035084657
-0.084152117 -0.027725406 -0.035386983
-0.083441816 -0.027671687 -0.035072431
-0.082847945 -0.027386606 -0.035066318
-0.082136825 -0.027332727 -0.034751505
-0.081307426 -0.027510269 -0.034127224
-0.080594793 -0.027456375 -0.033811636
-0.079999954 -0.027170824 -0.033805516
-0.079405114 -0.026885275 -0.033799391
-0.078810275 -0.026599726 -0.033793271
-0.078215428 -0.026314175 -0.033787146
-0.077501245 -0.026259767 -0.03347129
-0.07690616 -0.0259741 -0.033465169
-0.076191135 -0.025919531 -0.033149049
-0.075595804 -0.025633747 -0.033142921
-0.075000472 -0.025347961 -0.033136796
-0.074646391 -0.024600876 -0.033750411
-0.074051552 -0.024315327 -0.03374429
-0.073456712 -0.024029776 -0.033738166
-0.072983079 -0.023514209 -0.034041543
-0.072388478 -0.023228778 -0.034035422
-0.071793884 -0.022943344 -0.034029305
-0.07119929 -0.022657912 -0.034023181
-0.070604689 -0.022372479 -0.034017064
-0.070132419 -0.021857806 -0.034320202
-0.069538064 -0.021572489 -0.034314085
-0.06906642 -0.021058353 -0.034616973
-0.068472311 -0.020773154 -0.03461086
-0.068001308 -0.020259555 -0.034913506
-0.067407437 -0.019974474 -0.034907393
-0.066813566 -0.019689392 -0.03490128
-0.066219702 -0.019404311 -0.034895167
-0.065625839 -0.019119229 -0.034889057
-0.065280296 -0.018379075 -0.035499733
-0.064935327 -0.017640134 -0.03610941
-0.064342432 -0.017355518 -0.036103304
-0.063749537 -0.017070903 -0.036097206
-0.063156642 -0.016786287 -0.036091104
-0.062563747 -0.016501671 -0.036084998
-0.061970852 -0.016217057 -0.036078896
-0.061879355 -0.015029268 -0.037301406
-0.061663132 -0.01407002 -0.038214151
-0.061071929 -0.013786215 -0.038208064
-0.060355116 -0.013727031 -0.037895948
-0.059763674 -0.013443111 -0.037889857
-0.059550211 -0.012486584 -0.038801141
-0.05933727 -0.011532391 -0.039710194
-0.058999088 -0.010803225 -0.040312976
-0.058661461 -0.010075243 -0.040914781
-0.058072418 -0.0097924778 -0.040908713
-0.057609651 -0.0092877196 -0.041206222
-0.057399761 -0.0083405171 -0.0421094
-0.056811675 -0.0080582108 -0.042103346
-0.056350172 -0.0075549744 -0.042399887
-0.056268554 -0.0063913111 -0.04360177
-0.056313336 -0.0050123129 -0.045100164
-0.055853888 -0.0045123394 -0.045394294
-0.055268422 -0.0042312872 -0.04538827
-0.054682948 -0.0039502345 -0.045382243
-0.054477789 -0.0030148393 -0.046275269
-0.053893026 -0.0027341268 -0.046269249
-0.053562228 -0.0020185176 -0.046861399
-0.052850768 -0.0019552791 -0.046556421
-0.052266244 -0.00167468 -0.046550404
-0.051936895 -0.00096021272 -0.047142088
-0.051352836 -0.00067983964 -0.04713608
-0.050896686 -0.00018302035 -0.04742856
-0.05005648 -0.00033560107 -0.046825316
-0.049729045 0.00037749999 -0.047416542
-0.049145222 0.00065776019 -0.047410533
-0.048690144 0.001153841 -0.047702789
-0.048106559 0.0014339883 -0.04769678
-0.047522973 0.0017141358 -0.047690772
-0.046809938 0.0017788009 -0.047386497
-0.046226118 0.0020590611 -0.047380485
-0.045642294 0.0023393214 -0.047374476
-0.045058474 0.0026195815 -0.047368471
-0.044605043 0.0031148724 -0.047660738
-0.04389083 0.003180102 -0.047356449
-0.04330701 0.0034603619 -0.04735044
-0.113472 -0.034744035 -0.042224936
-0.11371038 -0.032612976 -0.044632383
-0.11353637 -0.03141214 -0.045827262
-0.1132601 -0.030443903 -0.046719391
-0.11329269 -0.028794363 -0.048503187
-0.11281236 -0.028287038 -0.048794646
-0.11222948 -0.028007232 -0.048788648
-0.1116466 -0.027727421 -0.04878265
-0.11096022 -0.027674675 -0.048479177
-0.10985718 -0.028532257 -0.046982203
-0.10948157 -0.027796445 -0.047573306
-0.10910659 -0.027061818 -0.048163451
-0.10852323 -0.026781784 -0.048157446
-0.1081493 -0.026048563 -0.048746649
-0.10767125 -0.025542548 -0.0490379
-0.1070886 -0.025262849 -0.049031902
-0.10597865 -0.026114885 -0.047537252
-0.10528888 -0.026061404 -0.047232788
-0.10459855 -0.026007881 -0.046928082
-0.10401426 -0.025727397 -0.046922065
-0.10300214 -0.026355237 -0.045718838
-0.10187899 -0.027213272 -0.044210836
-0.10118448 -0.027159998 -0.043903671
-0.10027234 -0.027563846 -0.042992774
-0.099467061 -0.027739558 -0.042382266
-0.098660484 -0.02791556 -0.041770767
-0.097852588 -0.028091844 -0.04115827
-0.097153634 -0.028038712 -0.040848617
-0.096343532 -0.028215311 -0.040234625
-0.095532104 -0.028392199 -0.039619636
-0.094830774 -0.028339081 -0.039308727
-0.094128877 -0.028285919 -0.038997564
-0.093538396 -0.028002463 -0.038991489
-0.092723362 -0.028179465 -0.03837448
-0.091907002 -0.028356757 -0.037756465
-0.091089308 -0.028534338 -0.037137445
-0.090383872 -0.028481103 -0.036824506
-0.0897917 -0.028196836 -0.036818407
-0.08885701 -0.028605755 -0.035890255
-0.088034809 -0.028783975 -0.035268184
-0.08767122 -0.028036524 -0.035878051
-0.086848043 -0.02821428 -0.035255969
-0.086254671 -0.027929431 -0.035249863
-0.085545518 -0.027875818 -0.034935378
-0.08483579 -0.027822161 -0.034620643
-0.084008947 -0.028000033 -0.033996511
-0.083414599 -0.027714716 -0.033990391
-0.082820244 -0.0274294 -0.033984277
-0.08210852 -0.027375493 -0.03366876
-0.080924429 -0.028249377 -0.032111824
-0.080210179 -0.028195677 -0.03179476
-0.079614118 -0.02790954 -0.031788625
-0.079018049 -0.027623404 -0.031782489
-0.07889808 -0.02641055 -0.033018578
-0.078302994 -0.026124882 -0.03301245
-0.077707909 -0.025839215 -0.033006329
-0.076753706 -0.026247244 -0.032068893
-0.076157883 -0.025961224 -0.032062761
-0.075441673 -0.025906581 -0.03174568
-0.074724868 -0.025851894 -0.031428333
-0.074370429 -0.025103167 -0.032044366
-0.073653482 -0.025048172 -0.031727273
-0.07342124 -0.024069883 -0.032653257
-0.072825916 -0.023784099 -0.032647129
-0.072230585 -0.023498314 -0.032641001
-0.071878776 -0.022752747 -0.033255026
-0.071039923 -0.022926746 -0.032628745
-0.070322201 -0.022870902 -0.032312158
-0.069726624 -0.022584999 -0.032306027
-0.069253936 -0.022069393 -0.032610364
-0.068658605 -0.021783607 -0.032604236
-0.068309732 -0.021039449 -0.033218287
-0.067838207 -0.020525109 -0.033521879
-0.067367062 -0.02001119 -0.033825222
-0.066896319 -0.019497694 -0.034128312
-0.066178359 -0.01944056 -0.033812985
-0.065708101 -0.018927298 -0.034116082
-0.065113991 -0.018642098 -0.034109965
-0.064893 -0.017674878 -0.035029992
-0.064548343 -0.016936515 -0.035640053
-0.063955441 -0.016651897 -0.035633948
-0.063362546 -0.016367283 -0.035627849
-0.062769651 -0.016082667 -0.035621747
-0.06217676 -0.015798051 -0.035615642
-0.061583865 -0.015513435 -0.035609543
-0.061493006 -0.014326797 -0.036832817
-0.061026573 -0.013817716 -0.037133444
-0.060434885 -0.013533682 -0.037127353
-0.059717223 -0.013474344 -0.036814541
-0.0591253 -0.013190193 -0.03680845
-0.059164643 -0.011785544 -0.038333505
-0.058952171 -0.010832206 -0.039243128
-0.058488294 -0.010326205 -0.039541796
-0.058276989 -0.0093761971 -0.040448476
-0.057687949 -0.0090934318 -0.040442411
-0.057477884 -0.0081460811 -0.041346885
-0.056889556 -0.0078636594 -0.041340832
-0.056427829 -0.0073602987 -0.041637797
-0.055839747 -0.007077992 -0.041631747
-0.055885486 -0.0056948122 -0.043137163
-0.055931039 -0.0043172208 -0.044636499
-0.05534533 -0.0040360545 -0.044630472
-0.054886281 -0.0035364754 -0.044924788
-0.054807354 -0.0023839851 -0.046117753
-0.05422283 -0.002103386 -0.046111736
-0.053765152 -0.0016055923 -0.046404868
-0.053180858 -0.0013251062 -0.046398852
-0.052723788 -0.00082782691 -0.046691753
-0.052394342 -0.00011461659 -0.047282849
-0.052065417 0.00059744628 -0.04787299
-0.051482301 0.00087736826 -0.047866989
-0.050771434 0.00094164466 -0.047563028
-0.050188083 0.0012216794 -0.047557022
-0.049604733 0.001501714 -0.047551017
-0.049021378 0.0017817485 -0.047545012
-0.048438028 0.0020617833 -0.047539011
-0.047854677 0.0023418178 -0.047533005
-0.047271322 0.0026218523 -0.047527
-0.046946656 0.0033314286 -0.04811671
-0.046493195 0.0038256373 -0.048408214
-0.045391303 0.0032471518 -0.047210764
-0.044807717 0.0035272993 -0.047204763
-0.044224132 0.0038074465 -0.047198754
-0.04350977 0.0038729545 -0.046894278
-0.042925946 0.0041532149 -0.046888266
-0.11426432 -0.034610737 -0.041771498
-0.1149101 -0.031560425 -0.045382041
-0.11432486 -0.031279486 -0.045376018
-0.11404764 -0.030311411 -0.046268687
-0.11356585 -0.029802248 -0.046561755
-0.1134952 -0.02838227 -0.048047569
-0.1130148 -0.027875111 -0.048339218
-0.11253478 -0.027368361 -0.048630629
-0.11195213 -0.027088663 -0.048624631
-0.11126615 -0.027035683 -0.048321221
-0.11068326 -0.026755873 -0.04831522
-0.11010039 -0.026476063 -0.048309218
-0.1095175 -0.026196253 -0.04830322
-0.10893463 -0.025916444 -0.048297223
-0.10845625 -0.025410481 -0.048588648
-0.1078736 -0.025130782 -0.048582654
-0.10729095 -0.024851086 -0.048576657
-0.10618141 -0.025702292 -0.047081087
-0.10549171 -0.025648646 -0.04677644
-0.10480147 -0.025594957 -0.046471551
-0.10379062 -0.026222583 -0.045267593
-0.10288385 -0.026624314 -0.044360563
-0.10197487 -0.027027024 -0.043451328
-0.10117196 -0.027202088 -0.04284193
-0.10025907 -0.027606316 -0.04192901
-0.099453121 -0.027782205 -0.041317139
-0.098645873 -0.027958384 -0.040704276
-0.09794724 -0.027905196 -0.04039444
-0.097137779 -0.028081687 -0.03978008
-0.096437678 -0.028028486 -0.039469492
-0.095625997 -0.028205294 -0.038853623
-0.094924428 -0.028152077 -0.038542278
-0.094333947 -0.027868619 -0.038536198
-0.093519561 -0.028045513 -0.037918821
-0.092703849 -0.028222697 -0.037300434
-0.091886804 -0.028400168 -0.036681037
-0.091181695 -0.028346878 -0.036367912
-0.090589531 -0.028062612 -0.036361821
-0.089883603 -0.028009163 -0.036048435
-0.089062914 -0.02818675 -0.035427
-0.088240884 -0.028364629 -0.034804549
-0.087647505 -0.02807978 -0.034798443
-0.087054126 -0.027794931 -0.034792334
-0.086345308 -0.027741263 -0.03447767
-0.085751683 -0.027456298 -0.034471557
-0.084809713 -0.027865313 -0.033538233
-0.08398217 -0.028043363 -0.032912701
-0.08338733 -0.027757814 -0.032906577
-0.082557939 -0.027935924 -0.032280013
-0.081373304 -0.02881204 -0.030718299
-0.080776751 -0.028525667 -0.030712157
-0.080180198 -0.028239297 -0.030706016
-0.079583637 -0.027952923 -0.030699877
-0.079106122 -0.02743426 -0.031005377
-0.078628995 -0.026916021 -0.031310625
-0.078032933 -0.026629884 -0.03130449
-0.077556446 -0.026112191 -0.031609491
-0.07684081 -0.026057612 -0.031292219
-0.076124579 -0.026002986 -0.03097469
-0.075287163 -0.026180092 -0.030344984
-0.074690364 -0.025893601 -0.030338842
-0.07421466 -0.025375573 -0.030644614
-0.073496766 -0.025320621 -0.030326556
-0.073264427 -0.02434079 -0.031255409
-0.072668366 -0.024054654 -0.031249274
-0.072194085 -0.023538018 -0.031554297
-0.071354114 -0.02371295 -0.030925587
-0.070757806 -0.023426695 -0.030919451
-0.070161499 -0.02314044 -0.030913312
-0.069442227 -0.023084592 -0.030595494
-0.069214992 -0.022107922 -0.031523634
-0.06874232 -0.021592299 -0.031828418
-0.068270035 -0.021077098 -0.032132953
-0.067798145 -0.020562321 -0.032437235
-0.067450114 -0.019819468 -0.033051178
-0.066979133 -0.01930584 -0.033354711
-0.066384777 -0.019020524 -0.03334859
-0.06579043 -0.018735208 -0.033342477
-0.065196075 -0.018449891 -0.033336356
-0.064726211 -0.017937036 -0.033639647
-0.064505689 -0.016970683 -0.034560252
-0.063912317 -0.016685834 -0.034554146
-0.063318938 -0.016400985 -0.034548037
-0.062475137 -0.016569354 -0.033924356
-0.062006775 -0.016057687 -0.034227159
-0.06141315 -0.015772723 -0.034221049
-0.061196879 -0.014809815 -0.035140187
-0.061106652 -0.013624325 -0.036364228
-0.060514726 -0.013340174 -0.036358137
-0.059922799 -0.013056024 -0.036352042
-0.059330873 -0.012771874 -0.036345951
-0.058738943 -0.012487723 -0.03633986
-0.058779076 -0.011084503 -0.03786587
-0.058567077 -0.010132023 -0.038776066
-0.057977077 -0.0098487977 -0.038769994
-0.057513591 -0.0093431948 -0.039068855
-0.057303481 -0.0083943857 -0.039976109
-0.056841023 -0.0078901956 -0.04027399
-0.056632068 -0.0069446936 -0.041178308
-0.055917233 -0.0068830433 -0.040869039
-0.055455901 -0.0063800802 -0.041166198
-0.055502418 -0.0049983128 -0.04267256
-0.055422306 -0.0038406644 -0.043872055
-0.054963037 -0.0033409623 -0.0441668
-0.054757454 -0.0024059273 -0.045061655
-0.054299194 -0.0019076102 -0.04535545
-0.053968076 -0.0011926672 -0.045948338
-0.053383783 -0.00091218104 -0.045942321
-0.053180601 1.766262e-05 -0.046832874
-0.052851047 0.000729619 -0.047423378
-0.052395031 0.0012250727 -0.047715276
-0.051812146 0.0015048821 -0.047709279
-0.051229265 0.0017846915 -0.047703277
-0.05064638 0.0020645009 -0.047697276
-0.050063498 0.0023443105 -0.047691282
-0.049480617 0.0026241199 -0.04768528
-0.048897736 0.0029039292 -0.047679279
-0.048314855 0.0031837388 -0.047673278
-0.047860838 0.0036780068 -0.047964957
-0.047278192 0.0039577037 -0.047958963
-0.046695545 0.0042374008 -0.047952965
-0.046112895 0.004517098 -0.047946967
-0.045140516 0.0041542514 -0.047047187
-0.044426806 0.0042198729 -0.046742775
-0.043843221 0.0045000203 -0.046736766
-0.043259636 0.0047801677 -0.04673076
-0.042544883 0.0048460676 -0.046426095
-0.116182 -0.031938415 -0.044636596
-0.11590242 -0.03096915 -0.04553052
-0.11531766 -0.030688437 -0.0455245
-0.11483517 -0.030178918 -0.04581799
-0.11435307 -0.02966981 -0.046111241
-0.11387134 -0.029161111 -0.046404254
-0.11359523 -0.02819754 -0.047293887
-0.11321723 -0.027463181 -0.047883786
-0.11263435 -0.027183373 -0.047877789
-0.11205146 -0.026903562 -0.047871787
-0.11146858 -0.026623752 -0.047865786
-0.1108857 -0.026343944 -0.047859788
-0.11030282 -0.026064135 -0.04785379
-0.10971993 -0.025784325 -0.047847789
-0.10924124 -0.025278414 -0.048139401
-0.10876294 -0.02477291 -0.048430774
-0.10807595 -0.02471902 -0.048127402
-0.10728342 -0.024891032 -0.047525935
-0.10648963 -0.025063321 -0.0469235
-0.10569455 -0.025235888 -0.046320092
-0.10468555 -0.025862681 -0.045116376
-0.10367329 -0.026491502 -0.043908767
-0.10276528 -0.026894048 -0.042998988
-0.10207085 -0.026840623 -0.042691208
-0.10105106 -0.02747307 -0.041475751
-0.10024577 -0.027648853 -0.040863514
-0.099439166 -0.027824923 -0.040250283
-0.098631248 -0.028001277 -0.039636053
-0.097822011 -0.028177917 -0.039020825
-0.097232252 -0.027894808 -0.039014757
-0.096310452 -0.028301692 -0.038093068
-0.095719978 -0.028018236 -0.038086988
-0.095129505 -0.027734779 -0.038080908
-0.094203994 -0.028141966 -0.037156951
-0.093163855 -0.028781189 -0.035923511
-0.092571691 -0.028496921 -0.03591742
-0.091979526 -0.028212653 -0.035911325
-0.091274165 -0.028159268 -0.035597757
-0.090681754 -0.027874883 -0.035591658
-0.089747764 -0.028283576 -0.034661617
-0.088925958 -0.028461605 -0.034038283
-0.088217616 -0.028408188 -0.033723179
-0.087623745 -0.028123107 -0.033717066
-0.087029882 -0.027838023 -0.033710957
-0.086436018 -0.027552942 -0.033704843
-0.085610479 -0.027730593 -0.033079959
-0.084550671 -0.028372552 -0.031833239
-0.0838385 -0.028318945 -0.031516325
-0.082891077 -0.02873037 -0.030576281
-0.082177043 -0.028676821 -0.030258326
-0.081580482 -0.02839045 -0.030252187
-0.080983929 -0.028104076 -0.030246044
-0.080387376 -0.027817706 -0.030239904
-0.079790823 -0.027531331 -0.030233765
-0.07919427 -0.027244959 -0.030227626
-0.078716911 -0.026726587 -0.030533317
-0.078120604 -0.026440332 -0.03052718
-0.077643886 -0.025922505 -0.030832626
-0.07680805 -0.02609947 -0.030203063
-0.076091222 -0.026044818 -0.029884823
-0.075373799 -0.025990119 -0.02956632
-0.074897632 -0.025471836 -0.029872539
-0.074300826 -0.025185347 -0.029866394
-0.073704027 -0.024898855 -0.029860253
-0.073107228 -0.024612365 -0.02985411
-0.072510429 -0.024325876 -0.029847967
-0.072157517 -0.023577787 -0.030465806
-0.07156121 -0.023291532 -0.030459667
-0.070842512 -0.023235746 -0.030141663
-0.070123233 -0.023179915 -0.029823396
-0.069526426 -0.022893425 -0.029817253
-0.06905286 -0.022376629 -0.030123241
-0.068702936 -0.021630451 -0.030740598
-0.068353586 -0.020885497 -0.031356942
-0.067881465 -0.020370588 -0.031661667
-0.067533217 -0.019627586 -0.032276496
-0.067062013 -0.019113827 -0.032580476
-0.066467412 -0.018828394 -0.032574352
-0.065872818 -0.01854296 -0.032568235
-0.065278225 -0.018257529 -0.032562114
-0.064808138 -0.017744541 -0.032865848
-0.064711772 -0.016551336 -0.034096617
-0.064118393 -0.016266488 -0.034090512
-0.063275248 -0.016434744 -0.033466458
-0.062681384 -0.016149662 -0.033460341
-0.062087517 -0.015864581 -0.033454232
-0.061367884 -0.01580598 -0.033138756
-0.061151493 -0.014842243 -0.034059975
-0.061061263 -0.013655732 -0.035286784
-0.060594626 -0.01314651 -0.035588287
-0.060002461 -0.012862244 -0.035582192
-0.059410289 -0.012577976 -0.035576098
-0.058818124 -0.012293709 -0.035570003
-0.058605555 -0.011337417 -0.036485236
-0.058393508 -0.010383463 -0.037398234
-0.057929292 -0.0098770251 -0.037698019
-0.057338811 -0.0095935697 -0.037691943
-0.057255223 -0.0084213857 -0.038906857
-0.056919008 -0.0076953392 -0.039509803
-0.056583345 -0.0069704722 -0.040111765
-0.055867907 -0.0069087828 -0.039801814
-0.055533234 -0.0061848485 -0.040403303
-0.055199098 -0.0054620882 -0.041003812
-0.055246118 -0.0040827375 -0.042509887
-0.055039857 -0.0031452912 -0.0434082
-0.054707471 -0.0024279049 -0.044003855
-0.054375622 -0.0017116765 -0.044598553
-0.053917516 -0.0012136395 -0.044892531
-0.053459778 -0.000716004 -0.04518627
-0.05338328 0.00043008919 -0.046376891
-0.053180344 0.0013571923 -0.047265846
-0.052597463 0.0016370018 -0.047259845
-0.052395716 0.0025615338 -0.048146665
-0.051686358 0.0026263834 -0.047843304
-0.051231358 0.0031204787 -0.048134677
-0.05052153 0.0031855528 -0.047831316
-0.050066996 0.0036794234 -0.048122697
-0.049356706 0.0037447221 -0.047819324
-0.048774287 0.0040243068 -0.047813326
-0.048191875 0.0043038912 -0.047807336
-0.047609463 0.0045834761 -0.047801342
-0.047027048 0.0048630605 -0.047795344
-0.046315245 0.0049288617 -0.047491722
-0.045473043 0.0047806995 -0.046889741
-0.044889927 0.0050606215 -0.04688374
-0.044306807 0.0053405436 -0.046877738
-0.043854225 0.0058341436 -0.047169853
-0.043271344 0.006113953 -0.047163855
-0.041900862 0.0051104659 -0.045365512
-0.11686923 -0.032035541 -0.043884519
-0.1170957 -0.029921789 -0.04627692
-0.11661328 -0.029413398 -0.046569634
-0.11572457 -0.029817855 -0.045666736
-0.11514027 -0.02953737 -0.045660719
-0.11465824 -0.029028725 -0.045953918
-0.11427893 -0.028292811 -0.046545606
-0.11379783 -0.027785279 -0.046838094
-0.11331711 -0.027278157 -0.047130339
-0.11283678 -0.026771443 -0.047422357
-0.1122539 -0.026491633 -0.047416359
-0.11167102 -0.026211824 -0.047410358
-0.11119153 -0.025705742 -0.047702141
-0.11081593 -0.024974268 -0.048291001
-0.11023374 -0.024694795 -0.048285011
-0.10965157 -0.024415324 -0.048279017
-0.10906938 -0.02413585 -0.048273027
-0.1082783 -0.024307257 -0.047672156
-0.1072759 -0.024931042 -0.046473525
-0.10658692 -0.024877105 -0.046168759
-0.1058974 -0.024823127 -0.045863744
-0.10456936 -0.026131054 -0.043757919
-0.1036628 -0.026533 -0.042848323
-0.10286158 -0.026707595 -0.042238686
-0.10216691 -0.026654074 -0.041930474
-0.10114687 -0.027286474 -0.040713288
-0.10034131 -0.027462177 -0.040100183
-0.099643655 -0.02740881 -0.039790224
-0.098616593 -0.028044239 -0.038566094
-0.097916812 -0.027991001 -0.038254883
-0.09710601 -0.028167851 -0.037637774
-0.096515529 -0.027884394 -0.037631698
-0.095702916 -0.028061301 -0.037013583
-0.094777368 -0.02846922 -0.036087561
-0.093961686 -0.028646963 -0.035466924
-0.093257137 -0.028593754 -0.035153173
-0.092439212 -0.02877182 -0.034531005
-0.091846317 -0.028487204 -0.034524906
-0.091026559 -0.028665327 -0.033901714
-0.090433173 -0.028380478 -0.033895608
-0.089611597 -0.02855866 -0.033271395
-0.089017734 -0.028273579 -0.033265281
-0.088194311 -0.028451821 -0.032640036
-0.087369546 -0.028630354 -0.032013766
-0.086774707 -0.028344803 -0.032007646
-0.085715935 -0.0289883 -0.030758137
-0.085120119 -0.028702281 -0.030752005
-0.08440759 -0.028648766 -0.030434381
-0.083694473 -0.028595207 -0.030116498
-0.082745694 -0.029007481 -0.029173564
-0.082030721 -0.028953981 -0.028854638
-0.08143343 -0.028667254 -0.028848492
-0.080836147 -0.028380528 -0.028842343
-0.080594562 -0.027396115 -0.029773792
-0.079760477 -0.02757444 -0.02914284
-0.079163432 -0.02728783 -0.029136693
-0.07856638 -0.027001223 -0.029130548
-0.078088887 -0.026482522 -0.029436948
-0.077611789 -0.025964253 -0.029743092
-0.076895289 -0.025909545 -0.029424662
-0.07629849 -0.025623053 -0.029418519
-0.075581156 -0.025568182 -0.029099824
-0.075104892 -0.025050072 -0.029406233
-0.074508093 -0.024763582 -0.029400092
-0.073790014 -0.024708357 -0.029081389
-0.073314488 -0.024190601 -0.029387806
-0.072717689 -0.023904111 -0.029381663
-0.072364606 -0.023156369 -0.029999884
-0.071524091 -0.023331132 -0.029369377
-0.070927292 -0.02304464 -0.029363234
-0.0700849 -0.023219453 -0.028731683
-0.069487609 -0.022932727 -0.028725537
-0.068890318 -0.022646001 -0.02871939
-0.068663485 -0.021668665 -0.02965099
-0.068437204 -0.020693742 -0.030580292
-0.067841388 -0.020407721 -0.03057416
-0.067492887 -0.019664079 -0.031190386
-0.06702131 -0.019149881 -0.031495057
-0.066426225 -0.018864216 -0.031488933
-0.06583114 -0.018578548 -0.031482808
-0.065236062 -0.018292882 -0.031476684
-0.064890131 -0.017551888 -0.032091413
-0.064420193 -0.017039191 -0.032395337
-0.064075366 -0.016300134 -0.033008557
-0.063481495 -0.016015053 -0.033002444
-0.062637135 -0.016183242 -0.032376982
-0.062042784 -0.015897928 -0.032370869
-0.061448433 -0.015612611 -0.032364748
-0.061106034 -0.014874726 -0.032977995
-0.06063823 -0.014363753 -0.033281185
-0.060674597 -0.012952687 -0.034817811
-0.059956148 -0.01289304 -0.034503669
-0.059489775 -0.012383921 -0.034805615
-0.058897365 -0.012099538 -0.03479952
-0.058431614 -0.011590951 -0.035101224
-0.058219522 -0.01063552 -0.036017034
-0.057754803 -0.01012836 -0.036317743
-0.057290461 -0.0096216137 -0.036618218
-0.056826502 -0.0091152806 -0.036918443
-0.056997065 -0.0075003249 -0.03874499
-0.056661196 -0.0067753214 -0.039347824
-0.055945504 -0.0067135277 -0.039037433
-0.055610627 -0.0059894579 -0.039639786
-0.055276293 -0.005266563 -0.040241156
-0.055323172 -0.0038870499 -0.041749384
-0.05499002 -0.0031679028 -0.042347349
-0.054657407 -0.0024499183 -0.042944346
-0.054325327 -0.0017330935 -0.043540377
-0.053993791 -0.0010174258 -0.044135444
-0.053662781 -0.00030291229 -0.044729557
-0.053585954 0.00084251579 -0.045920912
-0.053382773 0.0017691214 -0.046810415
-0.052926727 0.0022639579 -0.04710244
-0.052597903 0.0029729668 -0.047691785
-0.052015726 0.003252439 -0.047685791
-0.051433545 0.0035319114 -0.047679797
-0.050851364 0.0038113836 -0.047673807
-0.050779354 0.0049456209 -0.048855662
-0.050070487 0.0050113229 -0.048553076
-0.04923299 0.0048635248 -0.047953155
-0.048522644 0.0049292729 -0.047649838
-0.047940463 0.0052087456 -0.047643844
-0.047358286 0.0054882178 -0.04763785
-0.046517596 0.0053406246 -0.047036473
-0.045805305 0.0054066442 -0.046732422
-0.045222424 0.005686454 -0.046726421
-0.044639539 0.0059662634 -0.046720423
-0.044317245 0.0066725821 -0.047310308
-0.043865204 0.007165052 -0.047601897
-0.043021709 0.0070188069 -0.047000494
-0.12228797 -0.027778678 -0.050314993
-0.12220037 -0.026372382 -0.051783219
-0.11540987 -0.03700535 -0.036752567
-0.11717413 -0.031391948 -0.043727715
-0.11739954 -0.029281121 -0.04611966
-0.11701833 -0.028545594 -0.046710741
-0.11653651 -0.028038369 -0.047002923
-0.11564878 -0.028440678 -0.046101637
-0.11506519 -0.028160529 -0.046095632
-0.11458377 -0.027653053 -0.046388298
-0.11410274 -0.027145986 -0.04668073
-0.11351962 -0.026866062 -0.046674728
-0.11293651 -0.02658614 -0.046668727
-0.11245633 -0.026079705 -0.046960928
-0.11197654 -0.025573675 -0.04725289
-0.11170337 -0.024616744 -0.048139364
-0.1113278 -0.023887025 -0.048727162
-0.11074632 -0.023607891 -0.048721176
-0.10985375 -0.024003891 -0.047824133
-0.10927157 -0.023724418 -0.047818143
-0.10848065 -0.023895493 -0.047216911
-0.10747857 -0.024518616 -0.046017546
-0.10657882 -0.024917152 -0.045113981
-0.10535848 -0.025998294 -0.04330631
-0.10445288 -0.02640008 -0.042396165
-0.10386647 -0.026118573 -0.04239013
-0.10317276 -0.026064856 -0.042082228
-0.10215517 -0.026695788 -0.040866274
-0.10124274 -0.027099725 -0.039950207
-0.10054572 -0.027046233 -0.039640315
-0.09973903 -0.027221885 -0.039025839
-0.098711707 -0.027857268 -0.037799966
-0.09790156 -0.028034007 -0.037182488
-0.097200625 -0.027980702 -0.036870334
-0.096277282 -0.028388353 -0.035944514
-0.095574543 -0.028335104 -0.035631344
-0.094759509 -0.028512739 -0.03501033
-0.09405528 -0.028459474 -0.034696396
-0.093238004 -0.02863743 -0.034073856
-0.092532299 -0.028584151 -0.033759151
-0.091826014 -0.028530829 -0.033444192
-0.091119148 -0.028477462 -0.033128969
-0.09052553 -0.028192498 -0.03312286
-0.089589432 -0.028602418 -0.032187879
-0.088880494 -0.028548991 -0.031871624
-0.088170968 -0.028495524 -0.031555116
-0.087230049 -0.028906658 -0.03061628
-0.086518675 -0.028853249 -0.030298732
-0.085806727 -0.028799795 -0.029980922
-0.085210666 -0.028513659 -0.029974788
-0.084381066 -0.028692756 -0.029344521
-0.083667353 -0.028639171 -0.029025927
-0.082835451 -0.028818596 -0.028394097
-0.08223816 -0.028531868 -0.028387949
-0.081640869 -0.028245142 -0.028381802
-0.081043579 -0.027958415 -0.028375654
-0.080564864 -0.02743911 -0.028682487
-0.079848997 -0.027384965 -0.02836336
-0.079370782 -0.026865892 -0.028670199
-0.078773737 -0.026579285 -0.028664052
-0.078176692 -0.026292676 -0.028657908
-0.077459835 -0.026238058 -0.028338768
-0.076862544 -0.025951331 -0.028332621
-0.076265253 -0.025664603 -0.028326474
-0.075788505 -0.025146242 -0.028633328
-0.075191461 -0.024859635 -0.028627181
-0.074594416 -0.024573026 -0.028621037
-0.073754698 -0.024749173 -0.027988613
-0.073157161 -0.024462327 -0.027982464
-0.072924957 -0.023482347 -0.028915357
-0.072449982 -0.022965308 -0.029221717
-0.071731359 -0.022909367 -0.028903073
-0.07113456 -0.022622876 -0.028896932
-0.070292339 -0.022797342 -0.028264996
-0.069695048 -0.022510614 -0.028258849
-0.069097757 -0.022223888 -0.028252698
-0.06862396 -0.021706944 -0.028559584
-0.068274111 -0.020960703 -0.029178735
-0.06767755 -0.020674329 -0.029172596
-0.06745249 -0.01970063 -0.03010249
-0.066732697 -0.019643413 -0.029784599
-0.066136636 -0.019357277 -0.029778466
-0.065665029 -0.018842572 -0.03008409
-0.065069214 -0.018556552 -0.030077958
-0.064598255 -0.018042389 -0.030383337
-0.064377345 -0.017073529 -0.031310216
-0.063782506 -0.016787978 -0.031304091
-0.063312836 -0.016275384 -0.031608466
-0.062843554 -0.015763208 -0.031912591
-0.062249202 -0.015477892 -0.031906474
-0.061529048 -0.015419084 -0.031590108
-0.06093445 -0.015133651 -0.031583987
-0.060339857 -0.014848219 -0.031577867
-0.06062882 -0.01298357 -0.033738222
-0.060035922 -0.012698955 -0.033732116
-0.059569325 -0.012189707 -0.034034505
-0.058976673 -0.011905207 -0.034028403
-0.058637269 -0.01117246 -0.034638539
-0.0580451 -0.010888193 -0.034632441
-0.057706732 -0.010156874 -0.035241581
-0.057368919 -0.0094267484 -0.035849731
-0.056777719 -0.0091429446 -0.035843644
-0.056440938 -0.0084142396 -0.036450807
-0.056739114 -0.0065800124 -0.038583256
-0.056150071 -0.006297247 -0.038577195
-0.055941876 -0.0053533004 -0.039483938
-0.055353552 -0.0050708796 -0.039477881
-0.055019565 -0.0043490222 -0.040079143
-0.054940104 -0.0031905507 -0.041284781
-0.054480284 -0.0026903029 -0.04158105
-0.054274954 -0.001754545 -0.042480491
-0.053943187 -0.0010382819 -0.043076895
-0.053611957 -0.00032317505 -0.043672342
-0.053281259 0.00039077859 -0.044266824
-0.053458586 0.0019659034 -0.046056539
-0.053129077 0.0026757217 -0.046647195
-0.052926771 0.0035986316 -0.047534395
-0.052344825 0.0038779918 -0.047528405
-0.051635735 0.0039433446 -0.047224913
-0.051180936 0.0044367122 -0.04751642
-0.05098122 0.0053563942 -0.048401512
-0.05039997 0.0056354185 -0.048395526
