# .PCD v0.7 - Point Cloud Data file format
VERSION 0.7
FIELDS x y z
SIZE 4 4 4
TYPE F F F
COUNT 1 1 1
WIDTH 1244
HEIGHT 1
VIEWPOINT 0 0 0 1 0 0 0
POINTS 1244
DATA ascii
-0.096291356 -0.023141121 -0.039308857
-0.09663675 -0.022593314 -0.039038047
-0.096904851 -0.021898851 -0.038498107
-0.097328268 -0.021496505 -0.038495835
-0.09806025 -0.021679714 -0.039568115
-0.098483056 -0.021277953 -0.039565846
-0.098905861 -0.020876188 -0.03956357
-0.099098712 -0.020034103 -0.03875567
-0.09952198 -0.019631904 -0.038753394
-0.099945247 -0.019229703 -0.038751122
-0.10036851 -0.018827502 -0.038748849
-0.10079178 -0.018425301 -0.038746573
-0.10121504 -0.0180231 -0.038744301
-0.1016383 -0.017620899 -0.038742028
-0.10213721 -0.017366599 -0.039008498
-0.10248484 -0.016816499 -0.03873748
-0.10283273 -0.016265996 -0.038466267
-0.10333136 -0.016012097 -0.038732935
-0.10375464 -0.015609896 -0.038730659
-0.1041779 -0.015207695 -0.038728386
-0.10467588 -0.014954272 -0.03899486
-0.10502443 -0.014403293 -0.038723838
-0.1055221 -0.014150161 -0.038990315
-0.10587096 -0.013598891 -0.038719293
-0.10629423 -0.013196691 -0.038717017
-0.1067175 -0.01279449 -0.038714744
-0.10721456 -0.012541942 -0.038981225
-0.10763767 -0.012139888 -0.038978949
-0.10806078 -0.011737833 -0.038976677
-0.10826374 -0.010885177 -0.038167547
-0.10868732 -0.010482684 -0.038165271
-0.10911088 -0.010080191 -0.038162999
-0.10960744 -0.0098284464 -0.038429875
-0.11003085 -0.0094261002 -0.038427599
-0.11052689 -0.0091746831 -0.038694277
-0.11102256 -0.0089234496 -0.03896077
-0.11144567 -0.0085213948 -0.038958497
-0.11158007 -0.0075136451 -0.037879996
-0.1120038 -0.007111006 -0.03787772
-0.11242752 -0.0067083663 -0.037875444
-0.1127075 -0.0060013402 -0.037333872
-0.11305974 -0.0054459022 -0.037061658
-0.11341224 -0.0048900601 -0.036789238
-0.11390812 -0.0046397448 -0.037057098
-0.11433231 -0.004236666 -0.037054822
-0.11439982 -0.0030664515 -0.035699867
-0.11432432 -0.0015829058 -0.033795532
-0.11475037 -0.0011780596 -0.033793245
-0.11524776 -0.00092809479 -0.034063276
-0.053171892 -0.054957166 -0.027168998
-0.053885482 -0.05495774 -0.027997583
-0.054691583 -0.055094298 -0.029100286
-0.055214152 -0.054822955 -0.02937373
-0.056668896 -0.055907156 -0.032391313
-0.057188451 -0.055636711 -0.032662351
-0.057615124 -0.055231269 -0.032660056
-0.058226414 -0.055096406 -0.033203829
-0.058744833 -0.054826546 -0.033474274
-0.059721008 -0.055232082 -0.035104215
-0.060237557 -0.054962862 -0.035373274
-0.060935631 -0.054963425 -0.036183842
-0.061450981 -0.054694697 -0.036452118
-0.061965957 -0.054426167 -0.036720194
-0.062750936 -0.054561909 -0.037797399
-0.063174665 -0.054159272 -0.037795119
-0.063688084 -0.053891417 -0.038062226
-0.064201124 -0.053623766 -0.038329139
-0.064535223 -0.053086434 -0.038057674
-0.064958803 -0.052683942 -0.038055401
-0.065382376 -0.052281447 -0.038053125
-0.065894797 -0.052014377 -0.038320042
-0.066318221 -0.051612031 -0.038317766
-0.066653088 -0.051073972 -0.0380463
-0.067165062 -0.050807338 -0.038313217
-0.067588478 -0.050404992 -0.038310945
-0.068099923 -0.050138697 -0.038577668
-0.068259388 -0.049327597 -0.037767805
-0.06877096 -0.049061503 -0.038034923
-0.069457218 -0.049068488 -0.038839649
-0.069880322 -0.048666436 -0.038837381
-0.070303433 -0.048264381 -0.038835105
-0.070465259 -0.04745153 -0.038025822
-0.070801757 -0.046911761 -0.037754152
-0.071225487 -0.046509124 -0.037751872
-0.071562387 -0.045968816 -0.037480004
-0.072072938 -0.045703847 -0.037747324
-0.072410151 -0.045163248 -0.037475452
-0.07283403 -0.044760458 -0.037473176
-0.073257908 -0.044357672 -0.0374709
-0.073681794 -0.043954886 -0.03746862
-0.074105673 -0.043552101 -0.037466343
-0.074529558 -0.043149315 -0.037464067
-0.074953437 -0.042746533 -0.037461787
-0.075377315 -0.042343747 -0.037459511
-0.075801194 -0.041940961 -0.037457235
-0.076225072 -0.041538175 -0.037454955
-0.076563917 -0.040995862 -0.037182879
-0.077072836 -0.0407326 -0.037450407
-0.077750549 -0.040748663 -0.038256351
-0.078342564 -0.040625341 -0.038791921
-0.079017662 -0.04064149 -0.039594952
-0.079524033 -0.040379219 -0.039860725
-0.079946533 -0.039977744 -0.039858457
-0.080118611 -0.039157059 -0.039051462
-0.080291063 -0.038334586 -0.038242705
-0.080714487 -0.037932239 -0.038240433
-0.081137903 -0.037529893 -0.038238157
-0.081478156 -0.036986712 -0.037966665
-0.081818663 -0.03644314 -0.037694968
-0.082242392 -0.036040504 -0.037692692
-0.082996801 -0.036202736 -0.038766917
-0.083419912 -0.035800681 -0.038764644
-0.083596021 -0.034974251 -0.037955284
-0.084019601 -0.034571759 -0.037953012
-0.08452525 -0.034311119 -0.038219959
-0.085030548 -0.034050666 -0.038486715
-0.085698619 -0.034073979 -0.039290372
-0.086284019 -0.033955667 -0.039824415
-0.086706512 -0.033554193 -0.039822143
-0.086967036 -0.032868687 -0.039283559
-0.087227918 -0.032182187 -0.038744189
-0.087651029 -0.031780131 -0.038741916
-0.08807414 -0.031378079 -0.038739644
-0.088416673 -0.030833062 -0.038468529
-0.088839941 -0.030430861 -0.038466256
-0.089343481 -0.030171914 -0.038732827
-0.089686468 -0.029626459 -0.038461708
-0.090189703 -0.029367803 -0.038728278
-0.090612814 -0.028965749 -0.038726006
-0.091035932 -0.028563693 -0.038723737
-0.091538496 -0.028305518 -0.038990118
-0.092040695 -0.02804753 -0.039256301
-0.092384413 -0.027501699 -0.038985569
-0.092807375 -0.02709979 -0.0389833
-0.093072593 -0.026408853 -0.038443517
-0.093495868 -0.026006652 -0.038441241
-0.093919128 -0.025604453 -0.038438968
-0.094342396 -0.025202252 -0.038436696
-0.094765663 -0.024800051 -0.03843442
-0.09526705 -0.024543146 -0.038701005
-0.095923744 -0.024576787 -0.039504137
-0.096346401 -0.024175169 -0.039501864
-0.096691549 -0.023628134 -0.039231319
-0.097036958 -0.023080701 -0.03896058
-0.097305253 -0.022386845 -0.038420781
-0.097728521 -0.021984644 -0.038418505
-0.098459654 -0.022167081 -0.039490514
-0.09888231 -0.021765463 -0.039488241
-0.09922839 -0.021217555 -0.039217692
-0.099421583 -0.02037584 -0.038409412
-0.099844851 -0.019973641 -0.038407139
-0.10026811 -0.01957144 -0.038404867
-0.10076751 -0.019316433 -0.03867146
-0.10119062 -0.018914379 -0.038669184
-0.10176522 -0.018806975 -0.039204065
-0.10218802 -0.018405212 -0.039201792
-0.10261083 -0.018003449 -0.03919952
-0.10303363 -0.017601684 -0.039197251
-0.10330618 -0.016904105 -0.038657822
-0.10365424 -0.016353834 -0.038386676
-0.1041524 -0.016099995 -0.038653273
-0.10450077 -0.015549432 -0.038382128
-0.10499863 -0.015295886 -0.038648728
-0.10542174 -0.014893831 -0.038646456
-0.10584486 -0.014491775 -0.038644183
-0.10626797 -0.01408972 -0.038641911
-0.10676501 -0.013836795 -0.038908321
-0.10718796 -0.013434886 -0.038906049
-0.1075373 -0.012883556 -0.038635094
-0.10796042 -0.012481501 -0.038632821
-0.10838353 -0.012079447 -0.038630545
-0.10880664 -0.011677392 -0.038628273
-0.10901042 -0.010824671 -0.037818763
-0.10943399 -0.010422179 -0.037816491
-0.11000323 -0.010320823 -0.038352571
-0.11042649 -0.0099186217 -0.038350295
-0.11077726 -0.0093656145 -0.038078941
-0.11127303 -0.0091142207 -0.03834575
-0.11169629 -0.0087120198 -0.038343474
-0.11211956 -0.0083098188 -0.038341202
-0.11232702 -0.0074531166 -0.037531085
-0.11275075 -0.007050477 -0.037528809
-0.11317448 -0.0066478378 -0.037526533
-0.11352663 -0.0060930387 -0.037254583
-0.11395051 -0.0056902529 -0.037252303
-0.11444566 -0.0054399199 -0.037519705
-0.1147271 -0.0047319713 -0.03697788
-0.11429495 -0.0024860494 -0.03372173
-0.11457773 -0.0017723185 -0.033174351
-0.11514674 -0.001676653 -0.033717152
-0.11599887 -0.0021981199 -0.035345372
-0.11656518 -0.002102423 -0.03588501
-0.052834913 -0.054348283 -0.02487056
-0.054024115 -0.055032074 -0.027092369
-0.055018608 -0.055440433 -0.028749572
-0.055541061 -0.055168964 -0.029023144
-0.056901656 -0.056116812 -0.031768482
-0.057421315 -0.055846188 -0.032039847
-0.057848144 -0.055440601 -0.032037556
-0.058274969 -0.05503501 -0.032035261
-0.058886006 -0.05490024 -0.03257969
-0.059496146 -0.054765664 -0.033123322
-0.060288172 -0.054901503 -0.034210492
-0.060986958 -0.054902133 -0.03502322
-0.061684214 -0.054902762 -0.035834167
-0.062289651 -0.054768775 -0.036373056
-0.063074164 -0.054904018 -0.037450764
-0.063587613 -0.054635897 -0.037717991
-0.06410069 -0.054367974 -0.037985027
-0.064524107 -0.053965624 -0.037982754
-0.064947531 -0.053563278 -0.037980482
-0.065459929 -0.05329584 -0.038247321
-0.065883197 -0.052893639 -0.038245048
-0.066395067 -0.052626543 -0.038511701
-0.066729732 -0.052089237 -0.0382405
-0.067064628 -0.051551543 -0.037969109
-0.067576259 -0.051284835 -0.038235955
-0.067999527 -0.050882638 -0.038233683
-0.068422787 -0.050480433 -0.038231406
-0.068758309 -0.049942158 -0.037960012
-0.069269314 -0.049676035 -0.038226862
-0.069867276 -0.049546272 -0.038762257
-0.070377335 -0.049280584 -0.039028525
-0.070626192 -0.048605993 -0.038488973
-0.070962384 -0.048067231 -0.038217764
-0.071211927 -0.047391027 -0.037677035
-0.071548708 -0.046851233 -0.037405238
-0.071972437 -0.046448592 -0.037402961
-0.072741754 -0.046595719 -0.038477607
-0.073164865 -0.046193663 -0.038475335
-0.073587976 -0.045791611 -0.038473066
-0.07366734 -0.044838041 -0.037393857
-0.074005127 -0.044297121 -0.037121858
-0.074429005 -0.043894336 -0.037119582
-0.074938521 -0.043630119 -0.037387028
-0.07536225 -0.043227483 -0.037384756
-0.075871237 -0.042963605 -0.037652008
-0.076209702 -0.042422201 -0.0373802
-0.076548412 -0.04188041 -0.037108198
-0.076972298 -0.041477624 -0.037105918
-0.077396177 -0.041074838 -0.037103642
-0.078073531 -0.041090529 -0.03790997
-0.078665324 -0.040966954 -0.038445789
-0.079340063 -0.040982731 -0.039249197
-0.079846323 -0.040720336 -0.039515093
-0.08035221 -0.040458132 -0.039780803
-0.080774553 -0.040056806 -0.039778534
-0.081113815 -0.03951592 -0.039508287
-0.081037469 -0.038274102 -0.037894048
-0.081460893 -0.037871752 -0.037891772
-0.08188431 -0.037469406 -0.037889499
-0.082224838 -0.03692621 -0.037617877
-0.082648404 -0.036523715 -0.037615601
-0.083154567 -0.036262367 -0.037882674
-0.083742671 -0.036142297 -0.038418513
-0.084165782 -0.035740238 -0.03841624
-0.084506892 -0.035196807 -0.038145009
-0.085093796 -0.035077553 -0.03868046
-0.085598327 -0.034817107 -0.038946763
-0.086102501 -0.034556851 -0.039212868
-0.086606301 -0.034296785 -0.039478783
-0.087109745 -0.034036905 -0.039744504
-0.087532088 -0.033635579 -0.039742235
-0.087550677 -0.0325238 -0.038398057
-0.087973788 -0.032121748 -0.038395785
-0.088396899 -0.031719692 -0.038393512
-0.088739544 -0.031174799 -0.03812227
-0.089162812 -0.030772598 -0.038119994
-0.089586072 -0.030370397 -0.038117722
-0.090089351 -0.030111473 -0.038384423
-0.090432607 -0.029565996 -0.038113173
-0.090935573 -0.029307364 -0.038379874
-0.091438174 -0.029048918 -0.038646381
-0.09194041 -0.028790658 -0.038912691
-0.092363216 -0.028388895 -0.038910422
-0.092786022 -0.027987132 -0.03890815
-0.093208827 -0.027585369 -0.038905881
-0.093552962 -0.027039371 -0.038635023
-0.093897358 -0.026492979 -0.038363963
-0.094241999 -0.025946191 -0.038092714
-0.094665267 -0.02554399 -0.038090438
-0.095088534 -0.025141789 -0.038088165
-0.095589809 -0.02488476 -0.038354874
-0.096246146 -0.024918027 -0.039158378
-0.096668802 -0.024516411 -0.039156109
-0.097091451 -0.024114793 -0.03915384
-0.097359598 -0.023422191 -0.038614571
-0.097782552 -0.023020282 -0.038612302
-0.098205514 -0.022618374 -0.038610026
-0.098628469 -0.022216465 -0.038607754
-0.099051431 -0.021814557 -0.038605485
-0.099474385 -0.021412646 -0.038603209
-0.099744454 -0.020717578 -0.038063157
-0.10016771 -0.020315379 -0.038060881
-0.10059099 -0.019913178 -0.038058605
-0.10109026 -0.019658046 -0.038325325
-0.10151337 -0.019255992 -0.038323052
-0.10208773 -0.01914834 -0.038858186
-0.10258593 -0.018893765 -0.039124321
-0.10300858 -0.018492147 -0.039122052
-0.10343123 -0.018090531 -0.03911978
-0.10377895 -0.017541287 -0.038849097
-0.10405204 -0.016843664 -0.038309414
-0.10447516 -0.016441608 -0.038307145
-0.10489827 -0.016039554 -0.038304869
-0.10532138 -0.015637498 -0.038302597
-0.10581876 -0.015384012 -0.03856913
-0.10624173 -0.014982103 -0.038566861
-0.10666468 -0.014580195 -0.038564585
-0.1071614 -0.014327182 -0.038830929
-0.1075842 -0.013925419 -0.03882866
-0.10793356 -0.013374466 -0.038557772
-0.10835651 -0.012972558 -0.038555499
-0.10877948 -0.012570649 -0.038553227
-0.10912939 -0.012019006 -0.038282141
-0.1095525 -0.011616951 -0.038279869
-0.10990283 -0.011064761 -0.038008586
-0.1103261 -0.01066256 -0.038006313
-0.11074936 -0.010260359 -0.038004041
-0.11117263 -0.0098581593 -0.038001765
-0.11159589 -0.0094559584 -0.037999492
-0.11201916 -0.0090537574 -0.037997216
-0.11244242 -0.0086515574 -0.037994944
-0.11286569 -0.0082493564 -0.037992667
-0.11314569 -0.00754422 -0.037451778
-0.1134977 -0.0069899485 -0.037179898
-0.11392143 -0.0065873088 -0.037177619
-0.11434516 -0.0061846697 -0.037175346
-0.11483997 -0.0059342477 -0.037442677
-0.11519261 -0.0053793914 -0.03717079
-0.11447664 -0.0025214239 -0.032827981
-0.11490285 -0.0021164299 -0.032825686
-0.11532905 -0.0017114357 -0.032823399
-0.11646447 -0.0028488 -0.035539899
-0.11688911 -0.0024452808 -0.035537615
-0.11731376 -0.0020417618 -0.035535336
-0.051872481 -0.0538719 -0.022001272
-0.052591749 -0.053873681 -0.022840509
-0.053594563 -0.054286726 -0.024515716
-0.05478153 -0.0549707 -0.026738571
-0.055774346 -0.055379193 -0.028396556
-0.057134587 -0.056326617 -0.031145195
-0.057654351 -0.056055818 -0.031416886
-0.058081336 -0.055650081 -0.031414595
-0.058508322 -0.055244345 -0.0314123
-0.059027389 -0.054974042 -0.031683795
-0.059637874 -0.054839313 -0.032228481
-0.06043027 -0.054975145 -0.033317752
-0.061038394 -0.05484071 -0.033860054
-0.06191761 -0.055110984 -0.035215765
-0.062523104 -0.054976791 -0.035755303
-0.063397385 -0.05524613 -0.037104126
-0.063821115 -0.054843489 -0.037101854
-0.06442368 -0.054709837 -0.037638646
-0.064847097 -0.054307487 -0.037636373
-0.065270513 -0.053905144 -0.037634097
-0.065871596 -0.053772267 -0.038170118
-0.066294707 -0.053370208 -0.038167842
-0.066717818 -0.052968156 -0.038165569
-0.067140929 -0.0525661 -0.038163297
-0.067564048 -0.052164048 -0.038161021
-0.06789913 -0.051626574 -0.037889697
-0.068322398 -0.051224373 -0.037887424
-0.068833381 -0.050957881 -0.038154207
-0.069256492 -0.050555829 -0.038151931
-0.069679603 -0.05015377 -0.038149659
-0.07027705 -0.050023712 -0.038684912
-0.070699863 -0.049621947 -0.038682643
-0.071122669 -0.049220186 -0.038680375
-0.071372055 -0.048545551 -0.038140569
-0.071708515 -0.048006766 -0.037869237
-0.072045229 -0.047467593 -0.037597705
-0.072641388 -0.047339391 -0.038133752
-0.073236689 -0.047211368 -0.038669016
-0.073831126 -0.047083538 -0.03920351
-0.074167989 -0.046545003 -0.038932953
-0.074333839 -0.045731172 -0.038124658
-0.074585743 -0.045053512 -0.037584055
-0.07483802 -0.044374872 -0.03704267
-0.075261749 -0.043972228 -0.037040394
-0.075685471 -0.043569591 -0.037038118
-0.076194346 -0.043305587 -0.0373055
-0.076702841 -0.043041777 -0.037572686
-0.07695666 -0.042361677 -0.037031289
-0.077295639 -0.041819859 -0.03675916
-0.077719517 -0.041417073 -0.036756881
-0.078396522 -0.041432392 -0.037563588
-0.078988075 -0.041308567 -0.038099654
-0.079578765 -0.041184921 -0.038634948
-0.080168612 -0.041061454 -0.039169464
-0.08067438 -0.040799126 -0.039435297
-0.081096724 -0.040397801 -0.039433029
-0.081436105 -0.039857041 -0.039162654
-0.081775725 -0.039315887 -0.038892087
-0.082115598 -0.038774341 -0.038621321
-0.082290158 -0.037951749 -0.037812393
-0.082713433 -0.037549548 -0.037810121
-0.082971513 -0.0368657 -0.037269093
-0.08355996 -0.036745146 -0.037805572
-0.08398322 -0.036342945 -0.0378033
-0.084488533 -0.036081851 -0.038070109
-0.084993467 -0.03582095 -0.038336728
-0.085498042 -0.035560239 -0.038603149
-0.086002253 -0.035299711 -0.038869381
-0.086506091 -0.035039376 -0.039135423
-0.087009564 -0.034779228 -0.039401267
-0.087431908 -0.034377899 -0.039398998
-0.087854259 -0.033976573 -0.039396729
-0.088115506 -0.033291623 -0.038858034
-0.08829654 -0.032463361 -0.038049653
-0.088719651 -0.032061305 -0.038047377
-0.089062415 -0.031516537 -0.037776012
-0.089485683 -0.031114336 -0.03777374
-0.089988992 -0.030855142 -0.038040563
-0.090412103 -0.030453088 -0.038038287
-0.090755478 -0.029907733 -0.037766919
-0.091258325 -0.029648976 -0.038033742
-0.091760814 -0.029390408 -0.038300373
-0.092421077 -0.029418766 -0.039103646
-0.092922412 -0.029160654 -0.039369501
-0.093108535 -0.028328499 -0.038562268
-0.09353134 -0.027926736 -0.038559999
-0.093954146 -0.02752497 -0.038557727
-0.094376951 -0.027123209 -0.038555454
-0.094721518 -0.026577044 -0.038284469
-0.095066339 -0.026030483 -0.038013287
-0.09548945 -0.025628429 -0.038011014
-0.095912561 -0.025226373 -0.038008738
-0.096568547 -0.025259271 -0.038812622
-0.097068556 -0.025002573 -0.039078683
-0.097491056 -0.0246011 -0.039076414
-0.097759388 -0.023909103 -0.038537286
-0.098105185 -0.023361772 -0.038266294
-0.098528147 -0.022959864 -0.038264021
-0.098951101 -0.022557955 -0.038261749
-0.099450618 -0.02230205 -0.0385282
-0.099797018 -0.021754136 -0.038257208
-0.10014368 -0.021205826 -0.03798601
-0.1005668 -0.02080377 -0.037983738
-0.10091386 -0.020254916 -0.03771235
-0.10141302 -0.019999661 -0.037979193
-0.10183613 -0.019597607 -0.037976921
-0.10233477 -0.019342681 -0.038243573
-0.10290833 -0.019235007 -0.03877857
-0.10333098 -0.01883339 -0.038776293
-0.10375363 -0.018431772 -0.038774025
-0.10417628 -0.018030155 -0.038771756
-0.10459894 -0.017628536 -0.038769487
-0.10494708 -0.017079128 -0.038498677
-0.10529549 -0.01652932 -0.03822767
-0.10579269 -0.0162756 -0.038494132
-0.1062155 -0.015873838 -0.03849186
-0.10656436 -0.015323593 -0.038220853
-0.10698732 -0.014921684 -0.03821858
-0.10755751 -0.014817214 -0.038753595
-0.10798015 -0.014415596 -0.038751319
-0.10832953 -0.013865022 -0.038480505
-0.10875233 -0.013463259 -0.038478233
-0.10932103 -0.013359883 -0.039012864
-0.10974352 -0.012958411 -0.039010592
-0.10987526 -0.011958565 -0.037933733
-0.11029837 -0.01155651 -0.037931465
-0.11072148 -0.011154455 -0.037929192
-0.1112169 -0.010902595 -0.03819586
-0.11156771 -0.010350346 -0.037924644
-0.11191876 -0.009797696 -0.037653234
-0.11234202 -0.0093954951 -0.037650958
-0.1127653 -0.008993295 -0.037648685
-0.11318856 -0.0085910941 -0.037646413
-0.11361182 -0.0081888931 -0.037644137
-0.11389236 -0.0074837133 -0.037102994
-0.11424465 -0.0069294195 -0.036830988
-0.11466838 -0.0065267803 -0.036828708
-0.11516308 -0.0062762341 -0.037096165
-0.11530304 -0.0052641178 -0.036013778
-0.11480175 -0.0028655352 -0.032479316
-0.11600929 -0.0014958224 -0.032199349
-0.11721304 -0.0027881388 -0.035190225
-0.11777807 -0.0026920822 -0.035729583
-0.11799225 -0.0018270545 -0.034914546
-0.052202296 -0.054220986 -0.021647567
-0.052634668 -0.053810135 -0.021645244
-0.053353086 -0.05381199 -0.022484878
-0.054448836 -0.054362074 -0.024439869
-0.055914171 -0.055453729 -0.027492968
-0.057274893 -0.056401573 -0.030246936
-0.057702351 -0.055995394 -0.030244639
-0.058314696 -0.055859718 -0.030791178
-0.058741841 -0.055453833 -0.030788884
-0.059261013 -0.055183355 -0.031060705
-0.059779808 -0.05491307 -0.031332329
-0.06057258 -0.055048894 -0.032423709
-0.061272074 -0.055049364 -0.033239577
-0.061788615 -0.054779917 -0.033509612
-0.062666468 -0.055050302 -0.034865968
-0.063271411 -0.054916155 -0.035405759
-0.064144336 -0.055185601 -0.036755215
-0.064746663 -0.055051696 -0.037292264
-0.065170087 -0.054649349 -0.037289985
-0.065593503 -0.054247007 -0.037287712
-0.066194348 -0.05411388 -0.037823983
-0.066617459 -0.053711824 -0.03782171
-0.06704057 -0.053309768 -0.037819438
-0.067463681 -0.052907716 -0.037817165
-0.0678868 -0.052505661 -0.037814893
-0.068222001 -0.05196831 -0.037543442
-0.068645261 -0.051566113 -0.037541166
-0.069156133 -0.051299497 -0.037808072
-0.069666632 -0.051033072 -0.038074788
-0.070176765 -0.050766841 -0.038341306
-0.070686527 -0.050500806 -0.038607631
-0.071022376 -0.049963314 -0.038336761
-0.071445182 -0.049561549 -0.038334493
-0.071694806 -0.048887163 -0.037794437
-0.072031386 -0.048348509 -0.037522975
-0.072541028 -0.048083056 -0.037789889
-0.073308408 -0.048227601 -0.038862415
-0.073816665 -0.047962673 -0.039128359
-0.074239016 -0.047561347 -0.039126094
-0.074575908 -0.047023181 -0.038855609
-0.074913047 -0.046484627 -0.038584925
-0.0751651 -0.045808256 -0.03804525
-0.07533215 -0.044993028 -0.037235398
-0.07558497 -0.044314343 -0.036693759
-0.076093875 -0.044050068 -0.036961265
-0.076602407 -0.043785989 -0.037228577
-0.077110581 -0.043522097 -0.037495695
-0.077533841 -0.043119896 -0.037493419
-0.077703603 -0.042301144 -0.036682379
-0.078296088 -0.042176597 -0.03721948
-0.078719504 -0.041774254 -0.0372172
-0.079310827 -0.04165018 -0.037753526
-0.079901285 -0.041526288 -0.038289066
-0.080407523 -0.041263599 -0.038555413
-0.080913395 -0.041001104 -0.038821563
-0.081335895 -0.040599629 -0.038819294
-0.081758387 -0.040198158 -0.038817026
-0.082180887 -0.039796684 -0.038814753
-0.082603388 -0.039395213 -0.038812485
-0.082943432 -0.038853895 -0.03854179
-0.08328373 -0.038312182 -0.038270898
-0.083459564 -0.037489086 -0.037461586
-0.083965056 -0.037227578 -0.037728522
-0.084388174 -0.036825523 -0.03772625
-0.084893152 -0.03656435 -0.037992992
-0.085479349 -0.036444187 -0.038528167
-0.085901998 -0.036042571 -0.038525898
-0.086405873 -0.035781968 -0.038792063
-0.086828373 -0.035380494 -0.03878979
-0.087331735 -0.035120219 -0.039055765
-0.087754078 -0.034718893 -0.039053492
-0.088176422 -0.034317568 -0.039051224
-0.088437915 -0.033632867 -0.038512275
-0.088860564 -0.033231247 -0.038510006
-0.089042403 -0.032402921 -0.037701249
-0.089465514 -0.032000866 -0.037698973
-0.089968652 -0.03174144 -0.03796573
-0.090471417 -0.031482205 -0.038232289
-0.09089423 -0.031080443 -0.038230013
-0.091078348 -0.030249471 -0.03742066
-0.091581076 -0.029990591 -0.037687611
-0.092004187 -0.029588535 -0.037685338
-0.092822224 -0.029902976 -0.039026268
-0.093323238 -0.029644784 -0.039292056
-0.093745433 -0.029243601 -0.039289787
-0.09393239 -0.028411837 -0.038482763
-0.094276667 -0.027866337 -0.038211845
-0.094777688 -0.027608601 -0.038478218
-0.095122278 -0.027062811 -0.038207304
-0.095467113 -0.026516624 -0.037936192
-0.095890068 -0.026114715 -0.03793392
-0.096390694 -0.025857521 -0.03820049
-0.096968345 -0.025745163 -0.038735323
-0.097390845 -0.02534369 -0.03873305
-0.097890384 -0.025087055 -0.038999043
-0.098235838 -0.024540748 -0.038728513
-0.098658338 -0.024139276 -0.03872624
-0.098850787 -0.023301354 -0.037918016
-0.099426866 -0.023190808 -0.038453244
-0.099849515 -0.02278919 -0.038450975
-0.10019594 -0.022241654 -0.03818005
-0.10061874 -0.021839889 -0.038177777
-0.10096557 -0.021291809 -0.037906654
-0.10138854 -0.020889901 -0.037904382
-0.10181149 -0.020487992 -0.037902109
-0.10215888 -0.01993922 -0.037630785
-0.10265741 -0.019684173 -0.037897568
-0.10308037 -0.019282263 -0.037895296
-0.10365338 -0.019174634 -0.038430542
-0.10415082 -0.018920138 -0.03869674
-0.10464791 -0.018665832 -0.03896274
-0.10514463 -0.018411705 -0.039228555
-0.10549261 -0.017863177 -0.038958207
-0.10591495 -0.017461849 -0.038955938
-0.10626332 -0.016912779 -0.038685389
-0.10668582 -0.016511306 -0.03868312
-0.10696083 -0.015813442 -0.038143706
-0.10738363 -0.015411678 -0.038141437
-0.10787991 -0.015158456 -0.038407836
-0.10830255 -0.014756839 -0.038405567
-0.10865205 -0.014206388 -0.038134623
-0.10907485 -0.013804625 -0.038132351
-0.10964331 -0.013701002 -0.038667232
-0.11006581 -0.01329953 -0.038664963
-0.11048831 -0.012898058 -0.038662694
-0.11076608 -0.012197572 -0.038123269
-0.11118887 -0.011795809 -0.038121
-0.11161168 -0.011394046 -0.038118724
-0.11210642 -0.011142281 -0.03838513
-0.11245729 -0.010590519 -0.038114183
-0.1126649 -0.0097372327 -0.037304703
-0.1131598 -0.0094857952 -0.037571695
-0.11351143 -0.0089328317 -0.037300155
-0.1139347 -0.0085306307 -0.037297882
-0.11421547 -0.0078256996 -0.036756482
-0.11449664 -0.0071197427 -0.036214299
-0.11477823 -0.006412759 -0.035671324
-0.11520242 -0.0060096802 -0.035669044
-0.11534264 -0.0049957004 -0.034582999
-0.11569648 -0.0044388832 -0.034309283
-0.11683169 -0.0015896701 -0.032121494
-0.11796162 -0.0027274778 -0.034840554
-0.11831629 -0.0021700375 -0.034567028
-0.052291229 -0.055254988 -0.021857955
-0.052723277 -0.054844443 -0.021855634
-0.052964482 -0.05415922 -0.021291541
-0.053396851 -0.053748373 -0.021289216
-0.054588351 -0.054436214 -0.023529012
-0.056147851 -0.055664293 -0.026865123
-0.057415403 -0.056476638 -0.029347356
-0.057843175 -0.05607016 -0.029345058
-0.058455873 -0.055934329 -0.029892659
-0.058883328 -0.055528149 -0.029890362
-0.059402827 -0.055257443 -0.030162714
-0.05992195 -0.054986935 -0.030434864
-0.060806427 -0.055257928 -0.031801801
-0.0613239 -0.054988012 -0.032072756
-0.062022563 -0.054988548 -0.032889012
-0.062900312 -0.055258647 -0.034246989
-0.063415319 -0.054989617 -0.034516167
-0.064019725 -0.054855514 -0.035056211
-0.064891279 -0.055125073 -0.036406305
-0.06549307 -0.054991212 -0.036943603
-0.065916494 -0.054588865 -0.036941331
-0.066428542 -0.054321058 -0.03720855
-0.066940218 -0.054053437 -0.037475578
-0.067363329 -0.053651381 -0.037473306
-0.06778644 -0.053249329 -0.03747103
-0.068209551 -0.052847274 -0.037468757
-0.06863267 -0.052445218 -0.037466489
-0.069055781 -0.052043162 -0.037464213
-0.069478892 -0.05164111 -0.03746194
-0.069902003 -0.051239055 -0.037459668
-0.070499286 -0.051108208 -0.037995424
-0.071095705 -0.05097755 -0.038530402
-0.071431577 -0.050440431 -0.038259607
-0.071681105 -0.049766924 -0.037719693
-0.072017565 -0.04922878 -0.037448302
-0.072527021 -0.048963107 -0.037715144
-0.073036119 -0.048697628 -0.037981797
-0.073716491 -0.048704997 -0.038785126
-0.074138843 -0.048303667 -0.038782857
-0.074475691 -0.047765773 -0.038512249
-0.074898191 -0.047364302 -0.03850998
-0.075235449 -0.046825871 -0.03823917
-0.075658105 -0.046424251 -0.038236901
-0.075995751 -0.045885283 -0.037965897
-0.07616365 -0.04507044 -0.037156254
-0.076501973 -0.044530198 -0.036884468
-0.077433191 -0.04495547 -0.03849636
-0.077855684 -0.044553999 -0.038494091
-0.078109778 -0.043876469 -0.037954543
-0.078532584 -0.043474704 -0.03795227
-0.07895539 -0.043072946 -0.037950002
-0.079294369 -0.042532567 -0.037678793
-0.079717323 -0.042130657 -0.037676521
-0.080140285 -0.04172875 -0.037674252
-0.080729924 -0.041604843 -0.038209654
-0.081152573 -0.041203223 -0.038207386
-0.08165817 -0.04094075 -0.038473662
-0.08208067 -0.040539276 -0.038471393
-0.082503177 -0.040137805 -0.038469125
-0.082925677 -0.039736331 -0.038466856
-0.083265841 -0.039195135 -0.038196035
-0.08368849 -0.038793519 -0.038193762
-0.084029056 -0.038251784 -0.037922744
-0.084451862 -0.037850022 -0.037920475
-0.084956445 -0.037588663 -0.038186956
-0.085460663 -0.037327498 -0.03845324
-0.085883163 -0.036926027 -0.038450971
-0.086305663 -0.036524557 -0.038448699
-0.086728163 -0.036123086 -0.03844643
-0.087231562 -0.035862546 -0.038712524
-0.087653898 -0.035461217 -0.038710255
-0.088076249 -0.035059892 -0.03870799
-0.0884986 -0.034658566 -0.038705718
-0.088840656 -0.034115724 -0.038435083
-0.089182965 -0.033572491 -0.038164251
-0.089605615 -0.033170871 -0.038161978
-0.090028264 -0.032769255 -0.038159706
-0.09045092 -0.032367639 -0.038157437
-0.090953149 -0.032108363 -0.038423732
-0.091296226 -0.031564403 -0.038152896
-0.091639549 -0.031020047 -0.037881862
-0.091903828 -0.030332204 -0.037341479
-0.092326939 -0.029930148 -0.037339207
-0.093223102 -0.030386835 -0.038948946
-0.093802206 -0.030271363 -0.039482459
-0.094302312 -0.030013315 -0.039747797
-0.094489679 -0.029183291 -0.038942143
-0.094833776 -0.028638665 -0.038671687
-0.095256127 -0.028237337 -0.038669419
-0.095678471 -0.027836012 -0.03866715
-0.096100815 -0.027434684 -0.038664881
-0.096445635 -0.026889227 -0.038394231
-0.096868135 -0.026487755 -0.038391959
-0.09736786 -0.026230706 -0.038658075
-0.097790197 -0.025829379 -0.038655806
-0.098212548 -0.025428051 -0.038653538
-0.098634899 -0.025026724 -0.038651269
-0.099057235 -0.024625398 -0.038648997
-0.099403128 -0.024078922 -0.038378343
-0.099825621 -0.02367745 -0.038376071
-0.10024812 -0.023275979 -0.038373802
-0.10067062 -0.022874506 -0.038371533
-0.10094126 -0.022181256 -0.037831899
-0.10136407 -0.021779491 -0.037829623
-0.10178687 -0.021377729 -0.037827354
-0.10220968 -0.020975966 -0.037825081
-0.10263249 -0.020574203 -0.037822813
-0.10305529 -0.02017244 -0.03782054
-0.1034781 -0.019770676 -0.037818268
-0.10397579 -0.019515876 -0.038084786
-0.10447311 -0.019261258 -0.038351107
-0.10504449 -0.019153759 -0.038885441
-0.10546669 -0.018752577 -0.038883176
-0.10588888 -0.018351395 -0.038880907
-0.10631108 -0.017950214 -0.038878638
-0.10673327 -0.017549032 -0.03887637
-0.10708181 -0.017000193 -0.038605891
-0.1074306 -0.016450953 -0.038335219
-0.10777965 -0.015901316 -0.038064349
-0.1082023 -0.015499699 -0.038062081
-0.10862496 -0.015098081 -0.038059812
-0.10897456 -0.014547754 -0.037788741
-0.10939737 -0.014145992 -0.037786473
-0.1099656 -0.014042121 -0.038321603
-0.11046058 -0.013789578 -0.038587742
-0.11081059 -0.013239177 -0.038317062
-0.11123309 -0.012837704 -0.038314793
-0.11165559 -0.012436233 -0.038312525
-0.11200617 -0.01188514 -0.038041648
-0.11242883 -0.011483522 -0.038039375
-0.11285148 -0.011081905 -0.038037106
-0.11320262 -0.010530122 -0.037766028
-0.11348255 -0.0098274089 -0.037225563
-0.11383431 -0.0092745693 -0.036953896
-0.11425757 -0.0088723684 -0.036951624
-0.11460973 -0.0083189821 -0.03667976
-0.11481998 -0.0074619781 -0.035867535
-0.11510181 -0.0067552431 -0.035324309
-0.11552599 -0.0063521643 -0.035322033
-0.11559568 -0.0051858048 -0.033963922
-0.11708611 -0.0017791545 -0.031499479
-0.11751246 -0.0013740123 -0.031497188
-0.052238032 -0.055055797 -0.020379614
-0.05276636 -0.054781951 -0.020658828
-0.053198889 -0.054370947 -0.020656506
-0.053631421 -0.053959947 -0.020654181
-0.05491719 -0.054784268 -0.023176353
-0.056288105 -0.05573912 -0.02595941
-0.057184134 -0.056010224 -0.027342111
-0.057891473 -0.056009639 -0.028168375
-0.058597252 -0.05600905 -0.028992819
-0.059117243 -0.055737972 -0.0292657
-0.059544854 -0.05533164 -0.029263403
-0.060064305 -0.055060904 -0.029536083
-0.060857814 -0.055196714 -0.030631691
-0.06164901 -0.055332124 -0.031724092
-0.062165987 -0.055062279 -0.031994976
-0.063044108 -0.055332441 -0.033355579
-0.063739367 -0.055332601 -0.034168649
-0.064164177 -0.054928932 -0.034166362
-0.064768031 -0.054794878 -0.034706663
-0.065727182 -0.055198856 -0.036327403
-0.066239476 -0.054930728 -0.036594942
-0.066751413 -0.054662794 -0.036862291
-0.067439362 -0.05466368 -0.037667714
-0.067862168 -0.054261915 -0.037665442
-0.068284974 -0.053860154 -0.037663169
-0.068620071 -0.05332369 -0.03739186
-0.069043033 -0.052921779 -0.037389588
-0.069378532 -0.052384779 -0.037118081
-0.069801643 -0.051982723 -0.037115809
-0.070224755 -0.051580671 -0.037113536
-0.070821807 -0.051449575 -0.037649542
-0.071417995 -0.051318668 -0.038184773
-0.071753986 -0.050781671 -0.037913848
-0.072090216 -0.050244287 -0.037642732
-0.072340317 -0.049570393 -0.037102174
-0.072935827 -0.049440756 -0.037638187
-0.073616311 -0.04944732 -0.038441889
-0.074038655 -0.049045991 -0.03843962
-0.07437548 -0.048508365 -0.038168889
-0.074627049 -0.047833707 -0.037629101
-0.075135201 -0.047568731 -0.037895687
-0.075642973 -0.047303949 -0.038162079
-0.076065473 -0.046902478 -0.03815981
-0.076403156 -0.046363875 -0.037888873
-0.076825805 -0.045962263 -0.037886605
-0.077332966 -0.045698058 -0.038153
-0.077839777 -0.04543405 -0.038419202
-0.078177974 -0.044895116 -0.038148459
-0.078516409 -0.044355787 -0.037877526
-0.078855105 -0.043816075 -0.037606388
-0.07927791 -0.04341431 -0.03760412
-0.079616994 -0.042874053 -0.037332788
-0.080123521 -0.042610783 -0.037599575
-0.08046291 -0.042070236 -0.037328243
-0.081052333 -0.041946083 -0.037863899
-0.081474975 -0.041544467 -0.03786163
-0.081980459 -0.041281868 -0.038128033
-0.082402959 -0.040880393 -0.038125765
-0.082825452 -0.040478922 -0.038123496
-0.083165586 -0.039937995 -0.037852552
-0.083588243 -0.039536376 -0.037850276
-0.08409296 -0.039274506 -0.038116686
-0.084515452 -0.038873035 -0.038114417
-0.085019656 -0.038611501 -0.03838063
-0.085441992 -0.038210172 -0.038378365
-0.085864343 -0.037808847 -0.038376097
-0.086286686 -0.037407521 -0.038373824
-0.08670903 -0.037006192 -0.038371559
-0.087212257 -0.036745425 -0.038637586
-0.087634444 -0.036344245 -0.038635314
-0.087976076 -0.035802212 -0.038364749
-0.088398412 -0.035400886 -0.038362484
-0.088820763 -0.034999557 -0.038360216
-0.089243114 -0.034598231 -0.038357943
-0.089505367 -0.033913735 -0.037818491
-0.089928016 -0.033512115 -0.037816223
-0.090350673 -0.033110496 -0.037813954
-0.090932496 -0.032992929 -0.038348868
-0.091275439 -0.03244948 -0.038078103
-0.091697939 -0.032048013 -0.038075831
-0.092041276 -0.031504028 -0.037804872
-0.092384875 -0.030959651 -0.037533712
-0.092886582 -0.030700792 -0.037800331
-0.093545154 -0.030727707 -0.038603567
-0.094045706 -0.03046931 -0.038869411
-0.094702065 -0.030496435 -0.039670322
-0.09488979 -0.029667236 -0.038864877
-0.095311828 -0.029266199 -0.038862608
-0.095733874 -0.028865164 -0.03886034
-0.096233457 -0.028607532 -0.039126001
-0.096655346 -0.028206643 -0.039123733
-0.097077236 -0.027805749 -0.039121468
-0.097499125 -0.02740486 -0.039119199
-0.097921014 -0.02700397 -0.03911693
-0.09826611 -0.026458947 -0.038846742
-0.098611459 -0.025913531 -0.038576346
-0.099033654 -0.025512351 -0.038574081
-0.099455848 -0.025111169 -0.038571812
-0.099801749 -0.024565067 -0.038301226
-0.1002241 -0.02416374 -0.038298957
-0.10072242 -0.023907626 -0.03856501
-0.10114461 -0.023506444 -0.038562741
-0.10149114 -0.022959761 -0.038292151
-0.1018379 -0.022412682 -0.038021363
-0.1022604 -0.022011209 -0.038019095
-0.1026829 -0.021609737 -0.038016826
-0.10303023 -0.02106197 -0.037745841
-0.10345288 -0.020660352 -0.037743568
-0.10387553 -0.020258734 -0.0377413
-0.1043729 -0.02000385 -0.038007747
-0.1047954 -0.019602377 -0.038005479
-0.10536654 -0.019494629 -0.038540062
-0.10593688 -0.019387038 -0.039073877
-0.10635876 -0.018986149 -0.039071605
-0.10685433 -0.018732183 -0.039337095
-0.10727606 -0.018331438 -0.039334826
-0.10762442 -0.017783476 -0.03906481
-0.10782632 -0.016939862 -0.038258117
-0.10817539 -0.016390599 -0.037987322
-0.10859788 -0.015989129 -0.037985049
-0.10902038 -0.015587656 -0.03798278
-0.10944289 -0.015186184 -0.037980512
-0.10986539 -0.014784711 -0.037978239
-0.1103604 -0.0145319 -0.038244508
-0.11085506 -0.014279273 -0.03851058
-0.11120509 -0.013729247 -0.038239971
-0.11177139 -0.013625791 -0.038774192
-0.11204978 -0.012926593 -0.038235433
-0.11240038 -0.012375879 -0.037964627
-0.11282288 -0.011974407 -0.037962355
-0.11317388 -0.011423147 -0.037691347
-0.11352514 -0.010871488 -0.03742015
-0.11394794 -0.010469724 -0.037417877
-0.11415717 -0.009616307 -0.036607638
-0.11450929 -0.0090631908 -0.036335651
-0.11486168 -0.0085096722 -0.036063466
-0.11528525 -0.0081071788 -0.036061186
-0.11563804 -0.0075531118 -0.035788804
-0.11613239 -0.0073021925 -0.036056638
-0.11599073 -0.0056816665 -0.033887964
-0.051800121 -0.054305248 -0.017764751
-0.052905198 -0.054856706 -0.019741444
-0.05343347 -0.054582831 -0.020020997
-0.054056481 -0.054446544 -0.020581806
-0.055434622 -0.055405468 -0.023382675
-0.056334872 -0.055677988 -0.024774207
-0.057045236 -0.055677764 -0.025605744
-0.057939872 -0.055948984 -0.026989095
-0.058461249 -0.055677325 -0.027263314
-0.058982246 -0.05540587 -0.027537331
-0.059687085 -0.055405948 -0.028362771
-0.060206864 -0.055134986 -0.028635984
-0.06090932 -0.055135366 -0.029459009
-0.061792314 -0.055406187 -0.030828228
-0.062490977 -0.055406261 -0.031646445
-0.063007452 -0.055136491 -0.031917259
-0.063973606 -0.05554105 -0.033549417
-0.064488217 -0.055271916 -0.033818845
-0.065091841 -0.055137608 -0.034359399
-0.065694578 -0.055003498 -0.034899168
-0.066562466 -0.05527259 -0.036248561
-0.067074277 -0.055004533 -0.036516033
-0.067761876 -0.055005047 -0.037321832
-0.068184681 -0.054603282 -0.03731956
-0.068607494 -0.054201517 -0.037317291
-0.0690303 -0.053799756 -0.037315018
-0.069453105 -0.053397991 -0.03731275
-0.069788627 -0.052861359 -0.03704131
-0.070124395 -0.052324336 -0.036769677
-0.070547506 -0.051922284 -0.036767401
-0.070970617 -0.051520225 -0.036765128
-0.071653731 -0.051524531 -0.037570365
-0.072076388 -0.051122915 -0.037568092
-0.072412744 -0.05058565 -0.037296847
-0.072835542 -0.050183889 -0.037294578
-0.073258348 -0.049782123 -0.037292305
-0.073938482 -0.049788315 -0.038096383
-0.074360825 -0.049386986 -0.038094115
-0.07469777 -0.048849482 -0.037823256
-0.07494957 -0.04817507 -0.037283223
-0.075457603 -0.047909971 -0.037549932
-0.075965263 -0.04764507 -0.03781645
-0.076387763 -0.047243595 -0.037814178
-0.076810256 -0.046842124 -0.037811909
-0.077317245 -0.046577703 -0.038078234
-0.077739596 -0.046176374 -0.038075965
-0.078246064 -0.045912288 -0.0383421
-0.078668259 -0.045511104 -0.038339827
-0.07875482 -0.044559199 -0.037262779
-0.078925721 -0.04374291 -0.036452368
-0.079600424 -0.043755677 -0.037258238
-0.079939634 -0.043215547 -0.036986783
-0.080446035 -0.04295215 -0.037253696
-0.08086884 -0.042550385 -0.037251424
-0.081374727 -0.042287327 -0.037518147
-0.081880249 -0.04202446 -0.037784673
-0.082302742 -0.041622985 -0.037782401
-0.08280775 -0.041360453 -0.03804874
-0.083147742 -0.04082004 -0.037777867
-0.083570242 -0.040418573 -0.037775598
-0.083992742 -0.040017098 -0.037773326
-0.084497124 -0.039755147 -0.038039666
-0.084837735 -0.039214153 -0.037768789
-0.085260242 -0.038812682 -0.037766516
-0.08576417 -0.038551167 -0.03803286
-0.086186506 -0.038149841 -0.038030591
-0.086608857 -0.037748512 -0.038028322
-0.087031201 -0.037347186 -0.03802605
-0.087534308 -0.037086301 -0.038292203
-0.087956496 -0.036685117 -0.038289934
-0.088459082 -0.036424562 -0.038555894
-0.08872059 -0.035741881 -0.038016975
-0.089142926 -0.035340555 -0.03801471
-0.089565277 -0.034939229 -0.038012441
-0.089987628 -0.034537904 -0.038010169
-0.090330221 -0.033995017 -0.037739281
-0.090832315 -0.033735249 -0.038005635
-0.091254659 -0.03333392 -0.038003363
-0.091756232 -0.033074487 -0.038269524
-0.092099354 -0.032531269 -0.037998829
-0.092442721 -0.031987656 -0.037727937
-0.092865221 -0.031586185 -0.037725665
-0.093287714 -0.031184714 -0.037723396
-0.093867205 -0.031068578 -0.038258184
-0.094289392 -0.030667396 -0.038255915
-0.094945714 -0.030694319 -0.039057784
-0.095367454 -0.030293573 -0.039055519
-0.095789194 -0.029892828 -0.039053254
-0.096210919 -0.02949208 -0.039050989
-0.096632659 -0.029091336 -0.03904872
-0.097208679 -0.028976925 -0.039581589
-0.097630106 -0.028576467 -0.039579324
-0.098051533 -0.028176012 -0.039577059
-0.098396309 -0.027632006 -0.039307326
-0.098817892 -0.027231403 -0.039305061
-0.099239469 -0.026830804 -0.039302796
-0.09966106 -0.026430203 -0.039300535
-0.10008264 -0.0260296 -0.039298266
-0.10042827 -0.025484622 -0.039028335
-0.10069825 -0.024794515 -0.038490146
-0.10112029 -0.024393478 -0.038487881
-0.10154233 -0.023992443 -0.038485616
-0.10203982 -0.023736574 -0.038751408
-0.1024617 -0.023335684 -0.038749143
-0.10280845 -0.022789333 -0.038478814
-0.10308035 -0.022096775 -0.037939839
-0.10342769 -0.021549383 -0.037668925
-0.10385019 -0.021147911 -0.037666656
-0.10434738 -0.020892795 -0.037933033
-0.10476973 -0.020491468 -0.037930764
-0.10519207 -0.02009014 -0.037928496
-0.10576273 -0.019982083 -0.038462944
-0.10625869 -0.019727664 -0.038728744
-0.10697512 -0.01991277 -0.039796814
-0.10724954 -0.019219382 -0.039259769
-0.10759776 -0.018671939 -0.038989823
-0.10794623 -0.0181241 -0.038719676
-0.10836813 -0.01772321 -0.038717411
-0.10864395 -0.017027233 -0.038178805
-0.10899319 -0.016478203 -0.037908077
-0.10941552 -0.016076876 -0.037905809
-0.10983787 -0.015675548 -0.037903536
-0.11033272 -0.015422507 -0.038169734
-0.11075491 -0.015021326 -0.038167465
-0.11132134 -0.014916972 -0.038701549
-0.11181511 -0.01466448 -0.038967166
-0.11216512 -0.01411519 -0.038697015
-0.112587 -0.0137143 -0.038694747
-0.11286587 -0.013015419 -0.038156129
-0.11314517 -0.012315526 -0.037616726
-0.11356766 -0.011914054 -0.037614457
-0.11391893 -0.011362772 -0.037343323
-0.11427046 -0.010811091 -0.037071999
-0.11448004 -0.0099580446 -0.03626138
-0.11483228 -0.0094050523 -0.035989266
-0.11518478 -0.0088516576 -0.035716955
-0.11567912 -0.0086003589 -0.035984717
-0.11610254 -0.0081980126 -0.035982445
-0.11673704 -0.0082494654 -0.036789112
-0.11687908 -0.0072416859 -0.03570785
-0.051262822 -0.053411573 -0.014848882
-0.052372999 -0.053967208 -0.016839804
-0.053668227 -0.054794878 -0.019385021
-0.054386295 -0.054795634 -0.020228101
-0.055763222 -0.055753265 -0.023030275
-0.056475524 -0.055752959 -0.023865279
-0.057092842 -0.055616565 -0.02442015
-0.057709251 -0.055480368 -0.024974201
-0.058510318 -0.05561626 -0.026082167
-0.059031866 -0.055344526 -0.026356921
-0.059737425 -0.055344675 -0.027184574
-0.060349632 -0.055209175 -0.027734563
-0.060960937 -0.05507388 -0.028283745
-0.061662566 -0.055074327 -0.029107157
-0.062544174 -0.055345256 -0.030477021
-0.063242018 -0.055345401 -0.03129562
-0.063938335 -0.055345546 -0.032112427
-0.064722732 -0.055480346 -0.033199485
-0.065415651 -0.055480342 -0.034012131
-0.066018157 -0.055345982 -0.034552149
-0.066531099 -0.055077408 -0.034820728
-0.067397147 -0.055346269 -0.036169779
-0.067820422 -0.054944068 -0.036167502
-0.068507202 -0.054944649 -0.036973678
-0.068930008 -0.054542884 -0.036971409
-0.069440223 -0.054275479 -0.037238233
-0.06986288 -0.053873863 -0.03723596
-0.070285529 -0.053472243 -0.037233692
-0.070447154 -0.052665953 -0.036423545
-0.070870265 -0.052263897 -0.036421273
-0.071466841 -0.052132305 -0.036957782
-0.071976133 -0.051865771 -0.037224609
-0.072312452 -0.051328782 -0.036953241
-0.072735257 -0.050927017 -0.036950964
-0.073158063 -0.050525252 -0.036948696
-0.073752552 -0.050395019 -0.037484437
-0.074260652 -0.050129306 -0.037750877
-0.074682996 -0.04972798 -0.037748612
-0.075020052 -0.049190603 -0.037477627
-0.075442553 -0.048789132 -0.037475359
-0.075865053 -0.048387658 -0.037473086
-0.076287545 -0.047986187 -0.037470818
-0.076710045 -0.047584713 -0.037468549
-0.077217072 -0.047320023 -0.037734997
-0.077639416 -0.046918694 -0.037732728
-0.078061759 -0.046517368 -0.037730463
-0.078484111 -0.046116043 -0.03772819
-0.078906454 -0.045714714 -0.037725922
-0.07890939 -0.044624854 -0.036378086
-0.079080589 -0.043808039 -0.035566125
-0.07967186 -0.043682445 -0.036103841
-0.080262266 -0.043557033 -0.036640774
-0.080851831 -0.043431804 -0.037176929
-0.08127448 -0.043030187 -0.037174661
-0.081780031 -0.042767048 -0.03744131
-0.082202531 -0.042365577 -0.037439041
-0.082625031 -0.041964103 -0.037436776
-0.083129913 -0.041701451 -0.037703235
-0.083552264 -0.041300122 -0.037700966
-0.0839746 -0.040898796 -0.037698697
-0.084396951 -0.040497471 -0.037696425
-0.084819295 -0.040096141 -0.03769416
-0.084996611 -0.039275881 -0.036885101
-0.085419416 -0.03887412 -0.036882833
-0.086005017 -0.038752329 -0.037418619
-0.086508684 -0.038490836 -0.037685085
-0.08693102 -0.038089506 -0.037682816
-0.087353371 -0.037688185 -0.037680544
-0.087936945 -0.037567385 -0.038215175
-0.088358976 -0.037166346 -0.038212907
-0.088781022 -0.036765307 -0.038210642
-0.089363135 -0.036645263 -0.038744494
-0.089625098 -0.035963237 -0.038206104
-0.090047143 -0.035562202 -0.038203839
-0.09038952 -0.035020079 -0.037933215
-0.090732142 -0.034477569 -0.037662394
-0.091154478 -0.034076244 -0.037660129
-0.091656096 -0.033816539 -0.037926409
-0.092157342 -0.033557024 -0.038192499
-0.092500478 -0.033014175 -0.037921876
-0.092843868 -0.032470934 -0.037651055
-0.093266211 -0.032069612 -0.037648786
-0.093688563 -0.031668283 -0.037646513
-0.094189256 -0.03140945 -0.037912805
-0.094611444 -0.031008268 -0.037910536
-0.095189549 -0.030892348 -0.038444806
-0.095689155 -0.030634075 -0.038710512
-0.096188404 -0.030375989 -0.038976032
-0.096687287 -0.030118091 -0.039241359
-0.097416759 -0.030287996 -0.040307533
-0.097683974 -0.029602855 -0.039771438
-0.098028369 -0.029059757 -0.039501969
-0.098449647 -0.028659446 -0.039499708
-0.098870918 -0.028259134 -0.039497443
-0.099215865 -0.027715355 -0.039227776
-0.0996373 -0.027314898 -0.039225515
-0.10005873 -0.026914442 -0.039223246
-0.10048015 -0.026513986 -0.039220985
-0.10082581 -0.025969377 -0.038951121
-0.10124739 -0.025568778 -0.038948856
-0.10151786 -0.024878981 -0.038410809
-0.10193975 -0.024478091 -0.038408544
-0.10236163 -0.024077199 -0.038406275
-0.10278352 -0.023676308 -0.03840401
-0.10320541 -0.023275418 -0.038401745
-0.10355242 -0.022729047 -0.038131289
-0.10389969 -0.02218228 -0.037860643
-0.10432187 -0.0217811 -0.037858374
-0.10474407 -0.021379918 -0.037856106
-0.10516626 -0.020978736 -0.037853837
-0.10566262 -0.020723866 -0.038119953
-0.10623253 -0.020615425 -0.038653877
-0.1068752 -0.020653214 -0.039454445
-0.10729647 -0.0202529 -0.039452184
-0.10771775 -0.01985259 -0.039449919
-0.1080659 -0.019305773 -0.039180238
-0.1083412 -0.018611694 -0.038642552
-0.10868995 -0.018063836 -0.038372282
-0.10911183 -0.017662942 -0.038370013
-0.10938819 -0.016966922 -0.037831157
-0.10981039 -0.01656574 -0.037828892
-0.11023258 -0.01616456 -0.037826624
-0.11079939 -0.01605938 -0.03836095
-0.11129335 -0.015806472 -0.038626689
-0.11171508 -0.015405728 -0.038624428
-0.11213681 -0.015004981 -0.038622163
-0.11248693 -0.014455816 -0.038351886
-0.11290882 -0.014054924 -0.038349621
-0.11325935 -0.013505216 -0.038079146
-0.11361013 -0.01295511 -0.037808478
-0.11396116 -0.012404605 -0.037537616
-0.11431245 -0.011853701 -0.037266556
-0.11466399 -0.011302397 -0.036995295
-0.11473185 -0.010149262 -0.035645157
-0.11508431 -0.0095961373 -0.035372719
-0.11543702 -0.0090426113 -0.035100088
-0.11593146 -0.0087911515 -0.035368171
-0.11670701 -0.0091436403 -0.036714759
-0.11712982 -0.008741878 -0.03671249
-0.11748262 -0.0081890458 -0.036440834
-0.049894407 -0.05236882 -0.010763739
-0.051304605 -0.05334698 -0.013634823
-0.052415915 -0.053903412 -0.015631141
-0.053330161 -0.054181259 -0.017050046
-0.05471611 -0.055144724 -0.019874398
-0.055809546 -0.055691969 -0.021838317
-0.056522589 -0.05569173 -0.022675565
-0.057234053 -0.055691496 -0.023510957
-0.057757609 -0.055418931 -0.023787472
-0.058373757 -0.055282827 -0.024342196
-0.058803577 -0.054874402 -0.024339886
-0.05960333 -0.055011235 -0.025449192
-0.060400728 -0.055147663 -0.026555236
-0.061195787 -0.055283692 -0.027658036
-0.061806243 -0.055148389 -0.028207071
-0.062506691 -0.055148751 -0.029030265
-0.06329605 -0.055284329 -0.03012581
-0.063993067 -0.055284541 -0.030944796
-0.065046892 -0.055823453 -0.032851841
-0.06573946 -0.055823073 -0.033664867
-0.06625288 -0.055554133 -0.03393396
-0.066765919 -0.055285387 -0.034202859
-0.067367002 -0.055151265 -0.034742348
-0.068143286 -0.055285804 -0.035821248
-0.06882973 -0.055286016 -0.036627799
-0.069339976 -0.055018339 -0.036894746
-0.069762625 -0.054616723 -0.036892474
-0.070185281 -0.054215103 -0.036890205
-0.070607923 -0.053813487 -0.036887936
-0.071117349 -0.05354644 -0.037154689
-0.071539849 -0.053144969 -0.037152421
-0.071962349 -0.052743495 -0.037150152
-0.072298542 -0.052207015 -0.036878854
-0.072721191 -0.051805396 -0.036876582
-0.073143847 -0.051403783 -0.036874313
-0.073652342 -0.051137608 -0.037141073
-0.074160479 -0.050871633 -0.037407644
-0.074582815 -0.050470304 -0.037405372
-0.075005166 -0.050068978 -0.037403103
-0.075342342 -0.049531721 -0.037131995
-0.075764842 -0.04913025 -0.037129726
-0.076187335 -0.048728775 -0.037127458
-0.076525055 -0.048190843 -0.036856148
-0.077032335 -0.04792583 -0.037122916
-0.077539235 -0.047661018 -0.037389491
-0.078045785 -0.047396392 -0.037655871
-0.078467973 -0.046995211 -0.037653606
-0.078806274 -0.046457037 -0.037382688
-0.079060964 -0.045781136 -0.036842525
-0.079399854 -0.045241937 -0.036571018
-0.079403691 -0.044150028 -0.035219617
-0.079994731 -0.044024184 -0.035757583
-0.080584906 -0.043898527 -0.036294769
-0.081174232 -0.043773048 -0.036831174
-0.081762694 -0.043647751 -0.037366807
-0.082267709 -0.043384578 -0.037633196
-0.082607388 -0.042845096 -0.037362266
-0.082947321 -0.042305224 -0.037091143
-0.083452083 -0.042042442 -0.037357733
