# .PCD v0.7 - Point Cloud Data file format
VERSION 0.7
FIELDS x y z
SIZE 4 4 4
TYPE F F F
COUNT 1 1 1
WIDTH 1286
HEIGHT 1
VIEWPOINT 0 0 0 1 0 0 0
POINTS 1286
DATA ascii
-0.11574616 0.03582906 -0.039800696
-0.11479189 0.035321321 -0.038633555
-0.11413097 0.035396669 -0.038336862
-0.11356844 0.035666708 -0.038331073
-0.11290678 0.035742216 -0.038034145
-0.11234404 0.036012359 -0.038028356
-0.1117813 0.036282502 -0.038022559
-0.11131833 0.036746856 -0.038307913
-0.11095558 0.03740466 -0.038883734
-0.11039349 0.037674487 -0.038877953
-0.1099316 0.038137764 -0.03916264
-0.10936973 0.03840749 -0.039156858
-0.1086065 0.038290586 -0.038569894
-0.10804419 0.038560521 -0.038564101
-0.10748188 0.038830452 -0.038558315
-0.10702094 0.039293461 -0.038843241
-0.10656037 0.039756112 -0.039127942
-0.10599849 0.040025834 -0.039122157
-0.10513054 0.039717272 -0.038244225
-0.1044656 0.039794356 -0.037947264
-0.10390285 0.040064499 -0.037941471
-0.10354572 0.040719986 -0.038517803
-0.10298341 0.040989917 -0.038512018
-0.1024211 0.041259851 -0.038506225
-0.10175537 0.041337501 -0.038209483
-0.10119285 0.04160754 -0.038203694
-0.10063032 0.041877579 -0.038197901
-0.10006779 0.042147618 -0.038192116
-0.099505261 0.042417657 -0.038186327
-0.099047251 0.042879451 -0.038471501
-0.098589584 0.043340888 -0.03875646
-0.09802749 0.043610718 -0.038750671
-0.09736032 0.043689251 -0.038454141
-0.096692637 0.043767843 -0.038157374
-0.096024424 0.043846499 -0.037860382
-0.095355697 0.043925215 -0.037563156
-0.094898932 0.044386782 -0.037848797
-0.094229765 0.044465709 -0.037551567
-0.093666799 0.044735957 -0.037545774
-0.092996903 0.044815049 -0.03724831
-0.092111751 0.044511359 -0.036366142
-0.091547906 0.044782028 -0.036360338
-0.090768129 0.044669677 -0.035769142
-0.090203851 0.044940557 -0.035763331
-0.089422412 0.04482824 -0.035171211
-0.08907529 0.045482311 -0.035751715
-0.088511012 0.045753192 -0.035745911
-0.087618887 0.045450006 -0.034860265
-0.087053947 0.045721199 -0.034854449
-0.086379118 0.045800954 -0.034554899
-0.085483111 0.045497354 -0.033666473
-0.084806614 0.045577142 -0.033365991
-0.084018506 0.045464974 -0.032770142
-0.083340645 0.045544844 -0.032468952
-0.082662255 0.045624778 -0.032167528
-0.081983328 0.045704778 -0.031865865
-0.081191473 0.045592487 -0.031267677
-0.080398381 0.045480024 -0.030668551
-0.079717241 0.045560118 -0.030365709
-0.078922056 0.045447499 -0.029765172
-0.078125626 0.045334697 -0.029163688
-0.077556476 0.045607917 -0.02915783
-0.076987319 0.045881134 -0.029151972
-0.076073892 0.045575477 -0.028250895
-0.075388908 0.045655865 -0.027946152
-0.074587815 0.045542967 -0.027341818
-0.073669396 0.045236181 -0.026436472
-0.072981842 0.045316629 -0.026130293
-0.072410449 0.045590922 -0.02612441
-0.071839049 0.045865219 -0.02611853
-0.071033254 0.045752212 -0.025511324
-0.070461407 0.046026725 -0.025505438
-0.069889568 0.046301238 -0.025499552
-0.069199704 0.046382196 -0.025192643
-0.068390876 0.046269465 -0.024583984
-0.06734281 0.045768205 -0.023369685
-0.066530593 0.045654722 -0.022758139
-0.065836944 0.045735709 -0.022449048
-0.065262832 0.04601131 -0.02244314
-0.064568408 0.046092473 -0.022133803
-0.063994065 0.046368178 -0.022127889
-0.063419729 0.04664389 -0.022121979
-0.062238973 0.045946751 -0.020595277
-0.06166349 0.046223003 -0.020589352
-0.061088014 0.04649926 -0.020583428
-0.060512535 0.046775512 -0.020577505
-0.059814569 0.046857174 -0.020266691
-0.058500513 0.04596338 -0.018426297
-0.057799801 0.046044946 -0.01811376
-0.057222489 0.046322081 -0.018107817
-0.056396697 0.04620827 -0.017487934
-0.055818927 0.046485625 -0.017481986
-0.054991361 0.046371855 -0.016861111
-0.054287851 0.046453748 -0.016547326
-0.053332258 0.046143774 -0.015616382
-0.052626956 0.046225701 -0.015301595
-0.051794522 0.046111405 -0.014677237
-0.051214669 0.046389759 -0.014671269
-0.05025309 0.046078961 -0.013735835
-0.049672544 0.04635765 -0.013729859
-0.049091991 0.046636336 -0.013723885
-0.048383299 0.046718661 -0.013407583
-0.047674038 0.046801053 -0.01309103
-0.047093026 0.047079969 -0.013085049
-0.045995194 0.046572559 -0.011834251
-0.045413248 0.046851918 -0.01182826
-0.044441197 0.046540555 -0.010886016
-0.043466795 0.046228435 -0.0099414969
-0.042752415 0.046310995 -0.0096221454
-0.042037461 0.046393618 -0.009302537
-0.04132193 0.046476312 -0.0089826705
-0.040605821 0.046559066 -0.008662547
-0.13955408 -0.0004301563 -0.0092223706
-0.13952321 0.0011463157 -0.011095906
-0.13958427 0.0029294426 -0.0132713
-0.14010133 0.0057647084 -0.01697653
-0.14025109 0.007732118 -0.019425055
-0.13985626 0.0084294537 -0.020030307
-0.13964373 0.0095446603 -0.021243846
-0.13952252 0.0108648 -0.022756843
-0.13922067 0.011764485 -0.023659406
-0.13955235 0.014108309 -0.026666263
-0.13907154 0.014588348 -0.026960358
-0.13868152 0.015273426 -0.027553722
-0.13838254 0.016162256 -0.028444955
-0.1383552 0.017660744 -0.030226979
-0.13868742 0.019961394 -0.033182345
-0.13848037 0.021039477 -0.034354545
-0.13845301 0.022514917 -0.036108907
-0.1382471 0.023584843 -0.037272006
-0.13768391 0.023855196 -0.03726621
-0.13712074 0.024125548 -0.037260409
-0.13673754 0.024793917 -0.037837718
-0.13626489 0.02526273 -0.038123142
-0.1357926 0.02573118 -0.038408343
-0.13559148 0.026792808 -0.039564278
-0.13512036 0.027259758 -0.039848369
-0.13455914 0.027529169 -0.039842594
-0.13399793 0.02779858 -0.039836816
-0.13343671 0.028067991 -0.039831039
-0.13287549 0.028337402 -0.039825264
-0.13222285 0.028409898 -0.039529607
-0.1316614 0.028679414 -0.039523825
-0.13109997 0.028948929 -0.039518047
-0.13053852 0.029218443 -0.039512269
-0.12997709 0.029487958 -0.039506488
-0.1296006 0.030150106 -0.040080272
-0.1290396 0.030419413 -0.040074497
-0.12847859 0.03068872 -0.040068727
-0.12810354 0.031349428 -0.040641628
-0.12744983 0.031423002 -0.04034663
-0.12688904 0.031692207 -0.040340859
-0.12632824 0.031961411 -0.040335085
-0.12576747 0.032230612 -0.040329315
-0.12511258 0.032304559 -0.040034082
-0.12455157 0.032573864 -0.040028304
-0.12399057 0.032843169 -0.04002253
-0.12342957 0.033112481 -0.040016759
-0.12286856 0.033381786 -0.040010981
-0.12230755 0.033651091 -0.040005207
-0.12174656 0.0339204 -0.039999437
-0.12108986 0.033995025 -0.039703958
-0.12052864 0.034264438 -0.03969818
-0.11996742 0.034533847 -0.039692406
-0.11930978 0.034608744 -0.039396696
-0.11845797 0.034294125 -0.038519759
-0.11799297 0.034758713 -0.038804587
-0.11781953 0.035805542 -0.039959013
-0.11725853 0.036074847 -0.039953239
-0.11669753 0.036344156 -0.039947465
-0.11603887 0.036419723 -0.039651971
-0.11537971 0.03649535 -0.039356243
-0.11472004 0.036571033 -0.039060291
-0.11386257 0.036258575 -0.038182624
-0.11320128 0.036334287 -0.037885759
-0.11263875 0.036604322 -0.037879966
-0.11247342 0.037649512 -0.039037168
-0.11201108 0.038112443 -0.039321572
-0.11154911 0.038575009 -0.039605759
-0.11098789 0.038844422 -0.039599981
-0.11042666 0.039113831 -0.039594203
-0.10986545 0.039383244 -0.039588429
-0.109003 0.039074294 -0.038712058
-0.10834034 0.039151039 -0.038415622
-0.10777824 0.039420869 -0.03840984
-0.10751958 0.040268563 -0.039275341
-0.10695814 0.04053808 -0.039269567
-0.10629521 0.040615331 -0.038973577
-0.10563176 0.040692639 -0.038677361
-0.1049678 0.040770009 -0.038380913
-0.1044057 0.041039836 -0.038375124
-0.10384361 0.041309666 -0.038369339
-0.10328152 0.041579496 -0.038363557
-0.10271943 0.041849323 -0.038357768
-0.10215734 0.042119153 -0.038351987
-0.10159525 0.042388979 -0.038346197
-0.10103316 0.04265881 -0.038340412
-0.10036715 0.042736974 -0.038043719
-0.099804841 0.043006908 -0.038037933
-0.099451154 0.043659601 -0.038613744
-0.099098012 0.044311289 -0.039188664
-0.098432034 0.04439 -0.038892642
-0.097765535 0.044468775 -0.038596395
-0.096993305 0.04435657 -0.038008995
-0.096219867 0.044244196 -0.037420686
-0.095551208 0.044323068 -0.037123289
-0.094988242 0.044593316 -0.037117492
-0.094425283 0.044863563 -0.0371117
-0.093862318 0.04513381 -0.037105903
-0.093192488 0.045213059 -0.036808275
-0.092414893 0.045101173 -0.036218114
-0.09174373 0.0451805 -0.035919789
-0.090964094 0.045068458 -0.035328247
-0.090183251 0.044956241 -0.034735784
-0.089618534 0.045227334 -0.034729972
-0.08905381 0.04549842 -0.034724161
-0.088380031 0.045578055 -0.03442467
-0.087705709 0.045657758 -0.034124948
-0.086921103 0.045545828 -0.033530619
-0.086135268 0.045433719 -0.032935366
-0.085569233 0.045705445 -0.032929543
-0.084781729 0.045593377 -0.032333355
-0.083992995 0.045481134 -0.031736232
-0.083203025 0.045368712 -0.031138176
-0.082635656 0.045641076 -0.031132335
-0.081956193 0.045721143 -0.030830035
-0.081163697 0.045608778 -0.030230565
-0.080482848 0.045688923 -0.029927554
-0.079688273 0.045576405 -0.02932667
-0.07889244 0.045463707 -0.028724844
-0.078209363 0.045543954 -0.028420646
-0.077411436 0.0454311 -0.027817398
-0.076841615 0.04570464 -0.027811533
-0.076156929 0.045785077 -0.027506616
-0.075241081 0.045478825 -0.026602179
-0.074323073 0.045171849 -0.025695598
-0.073635504 0.045252297 -0.025389008
-0.073063888 0.045526698 -0.025383124
-0.072375551 0.045607317 -0.025076289
-0.071920648 0.046075508 -0.025371358
-0.071231857 0.046156347 -0.025064517
-0.07066001 0.046430856 -0.025058631
-0.070088163 0.046705369 -0.025052745
-0.069398381 0.046786483 -0.024745656
-0.068589717 0.046674076 -0.024136648
-0.067541964 0.04617345 -0.02292164
-0.066610441 0.045865841 -0.022006381
-0.066036329 0.046141442 -0.022000471
-0.065222107 0.046028119 -0.021387113
-0.064527117 0.046109352 -0.021077111
-0.064072974 0.046579752 -0.021375285
-0.063256547 0.04646669 -0.020760946
-0.062438831 0.046353448 -0.02014563
-0.061863355 0.046629701 -0.020139707
-0.061165925 0.046711303 -0.019828718
-0.060590219 0.046987668 -0.019822791
-0.059646703 0.046679806 -0.018900199
-0.05894728 0.046761557 -0.018588221
-0.058123849 0.046648234 -0.017969459
-0.05717513 0.046339232 -0.017042445
-0.055974826 0.04563731 -0.015496453
-0.055895045 0.046698514 -0.016723029
-0.055067211 0.046584867 -0.016101301
-0.054238047 0.046471037 -0.015478577
-0.053533394 0.046553068 -0.015163862
-0.052575752 0.046242837 -0.014230142
-0.051869303 0.046324905 -0.013914424
-0.051035259 0.046210553 -0.013288205
-0.050199874 0.046096012 -0.012660979
-0.049363155 0.045981288 -0.012032749
-0.048909813 0.046457209 -0.012338016
-0.048200194 0.046539564 -0.01202078
-0.047361195 0.046425108 -0.011391531
-0.0466501 0.046507541 -0.011073532
-0.045679148 0.046195637 -0.010129998
-0.045096263 0.046475444 -0.010123998
-0.044383112 0.046558037 -0.0098049771
-0.043538678 0.046443272 -0.0091721714
-0.042824041 0.046525951 -0.0088523813
-0.042108826 0.046608698 -0.0085323341
-0.13975701 -1.7231056e-05 -0.008765839
-0.13944951 0.0009115318 -0.0097012855
-0.13978614 0.0033402157 -0.012817148
-0.13957185 0.0044733915 -0.014052925
-0.13972376 0.006451203 -0.016518598
-0.13987473 0.0084164273 -0.01896858
-0.13957112 0.0093229637 -0.019879604
-0.13944994 0.010645113 -0.021397104
-0.1396008 0.01258465 -0.023816168
-0.13984075 0.014717761 -0.026520129
-0.1395402 0.015607946 -0.027413283
-0.13896993 0.015881702 -0.027407413
-0.13858044 0.016564956 -0.027999727
-0.13837224 0.017655138 -0.029187424
-0.13870466 0.019957609 -0.032149162
-0.13831782 0.020633409 -0.03273407
-0.13829081 0.022112103 -0.034494959
-0.13808484 0.023184318 -0.035662375
-0.13787951 0.024253203 -0.036826171
-0.13731633 0.024523556 -0.036820374
-0.13693297 0.025191614 -0.037398022
-0.1365502 0.025858637 -0.037974779
-0.13616803 0.026524624 -0.038550638
-0.13587649 0.027386969 -0.039415643
-0.13549559 0.028050486 -0.039989274
-0.13502507 0.028516408 -0.040272869
-0.13437401 0.028588889 -0.039977726
-0.13381323 0.028858094 -0.039971955
-0.13325244 0.029127294 -0.039966181
-0.13278279 0.029592803 -0.040249791
-0.13222224 0.029861901 -0.040244017
-0.13166165 0.030130999 -0.04023825
-0.1310093 0.030204106 -0.039943095
-0.13044852 0.030473307 -0.039937325
-0.12979545 0.030546574 -0.039641939
-0.12923443 0.030815881 -0.039636161
-0.12867343 0.031085186 -0.039630391
-0.12839104 0.031940907 -0.040492807
-0.12783068 0.032209903 -0.040487036
-0.1271771 0.032283783 -0.040192094
-0.12661654 0.032552883 -0.04018632
-0.12596221 0.032626927 -0.039891146
-0.12540144 0.032896131 -0.039885376
-0.12484065 0.033165328 -0.039879605
-0.12437426 0.033629276 -0.040163241
-0.12381368 0.033898372 -0.040157475
-0.12306339 0.03377825 -0.039572649
-0.12250239 0.034047559 -0.039566871
-0.12194139 0.034316864 -0.0395611
-0.12147593 0.034780543 -0.039844971
-0.12091514 0.035049748 -0.039839201
-0.12035436 0.035318952 -0.039833426
-0.11969738 0.035394091 -0.039538004
-0.11903989 0.03546929 -0.03924235
-0.11857537 0.035932705 -0.039526451
-0.11801437 0.03620201 -0.039520681
-0.11745336 0.036471318 -0.039514903
-0.11689236 0.036740623 -0.039509129
-0.11633136 0.037009928 -0.039503358
-0.11577035 0.037279237 -0.03949758
-0.11511134 0.037355166 -0.039201912
-0.11435344 0.037237585 -0.038615666
-0.11379179 0.037507202 -0.038609881
-0.11323013 0.03777682 -0.038604103
-0.11296534 0.038625766 -0.039468713
-0.11230524 0.03870222 -0.039173029
-0.11184333 0.039164383 -0.039457161
-0.11128233 0.039433688 -0.039451391
-0.11072132 0.039702997 -0.039445613
-0.11006036 0.039779861 -0.039149921
-0.10949914 0.040049274 -0.039144147
-0.10883744 0.040126305 -0.038848225
-0.108276 0.040395822 -0.038842447
-0.10771457 0.040665336 -0.038836665
-0.10715313 0.04093485 -0.038830891
-0.10659169 0.041204363 -0.03882511
-0.10592861 0.041281875 -0.038528949
-0.10536696 0.041551493 -0.038523171
-0.10470315 0.041629169 -0.038226776
-0.10414127 0.041898891 -0.038220994
-0.1035794 0.042168617 -0.038215209
-0.10301752 0.042438339 -0.038209427
-0.10255868 0.042899594 -0.038494263
-0.10189378 0.042977788 -0.03819786
-0.10133191 0.043247513 -0.038192078
-0.10077003 0.043517236 -0.038186293
-0.10031205 0.043978069 -0.03847114
-0.099854439 0.044438545 -0.038755763
-0.099293001 0.044708062 -0.038749989
-0.098731562 0.044977576 -0.038744207
-0.098065436 0.045056548 -0.038448017
-0.097188585 0.044753965 -0.037569642
-0.096626274 0.045023896 -0.037563849
-0.095852554 0.044912037 -0.036975197
-0.095289811 0.045182183 -0.036969401
-0.094620794 0.045261413 -0.036671832
-0.093951263 0.045340709 -0.036374032
-0.093388088 0.045611065 -0.036368232
-0.092610642 0.045499489 -0.035777733
-0.091939546 0.045578968 -0.035479236
-0.091160066 0.045467239 -0.034887351
-0.090379372 0.045355335 -0.034294549
-0.089814655 0.045626424 -0.034288734
-0.089141168 0.045706108 -0.033989076
-0.088467151 0.045785859 -0.033689182
-0.087683134 0.045674026 -0.033094518
-0.086787947 0.045370039 -0.032203689
-0.086221687 0.045641869 -0.032197859
-0.085544951 0.045721781 -0.031896565
-0.084756814 0.045609634 -0.031299103
-0.08396744 0.045497313 -0.030700706
-0.083288498 0.045577325 -0.030398233
-0.082720898 0.045849796 -0.030392392
-0.081816725 0.045544941 -0.029495245
-0.08124847 0.045817729 -0.029489396
-0.080454484 0.045705311 -0.02888817
-0.079885781 0.045978315 -0.028882317
-0.07897649 0.045673013 -0.02798163
-0.078179151 0.045560256 -0.027378036
-0.07760933 0.045833796 -0.027372172
-0.07692495 0.045914285 -0.027067084
-0.076010011 0.045608185 -0.026162125
-0.075092912 0.045301367 -0.025255026
-0.074405648 0.045381863 -0.02494826
-0.07371784 0.045462426 -0.024641253
-0.073145993 0.045736939 -0.024635367
-0.072574154 0.046011452 -0.024629481
-0.072002307 0.046285961 -0.024623595
-0.07143046 0.046560474 -0.024617707
-0.070741206 0.046641532 -0.024310449
-0.070169136 0.046916153 -0.024304561
-0.069361068 0.046803847 -0.023695204
-0.068788543 0.047078684 -0.023689313
-0.067741111 0.046578702 -0.022473594
-0.066570789 0.045882534 -0.020950008
-0.065756343 0.045768917 -0.020335332
-0.065181322 0.046044957 -0.020329412
-0.064606301 0.04632099 -0.020323494
-0.064031273 0.046597026 -0.020317575
-0.063214168 0.046483885 -0.019701907
-0.062517278 0.046565432 -0.019390745
-0.061941572 0.046841796 -0.019384818
-0.061365865 0.047118161 -0.019378893
-0.06042327 0.046810456 -0.01845577
-0.059846878 0.047087152 -0.018449837
-0.059147537 0.047169063 -0.01813768
-0.05832427 0.047056064 -0.017518563
-0.056630317 0.045572259 -0.014741148
-0.055926334 0.045653962 -0.014426012
-0.055346947 0.045932092 -0.014420048
-0.05476756 0.046210226 -0.014414085
-0.053936832 0.046095915 -0.013789017
-0.05323093 0.046177924 -0.013473121
-0.052650847 0.046456389 -0.013467151
-0.051817428 0.046342142 -0.012840573
-0.050473034 0.045439571 -0.010966781
-0.049635187 0.045324139 -0.010336179
-0.048924435 0.0454062 -0.0100175
-0.048341785 0.045685899 -0.010011503
-0.047759138 0.045965597 -0.010005507
-0.047176491 0.046245292 -0.009999509
-0.046464462 0.046327755 -0.0096805664
-0.045881581 0.046607565 -0.0096745668
-0.045168746 0.046690211 -0.0093553644
-0.044324938 0.04657555 -0.0087221973
-0.043610618 0.046658285 -0.0084022265
-0.13937563 0.00067618024 -0.0083032921
-0.13998799 0.0037509887 -0.012362996
-0.13977338 0.0048835068 -0.0135995
-0.13946795 0.0058000791 -0.014522791
-0.13971117 0.007982159 -0.017291311
-0.13931614 0.008680407 -0.017899225
-0.13937716 0.010424903 -0.020034129
-0.13979979 0.012989578 -0.02336848
-0.14003904 0.015121254 -0.026074026
-0.13973825 0.016010962 -0.026967704
-0.1392581 0.016489498 -0.02726122
-0.13886854 0.017172007 -0.027853414
-0.13838932 0.01764952 -0.028146235
-0.13854209 0.019548895 -0.030521428
-0.13842465 0.020831952 -0.031996198
-0.13830768 0.022110002 -0.033465218
-0.13828073 0.023582945 -0.035221651
-0.13789603 0.024252774 -0.035801444
-0.13742219 0.024722526 -0.036088105
-0.1371284 0.025589311 -0.036958329
-0.13692504 0.026651982 -0.038117405
-0.13654287 0.02731684 -0.038692705
-0.1361613 0.027980668 -0.039267119
-0.13578032 0.02864347 -0.039840642
-0.13521975 0.028912568 -0.039834872
-0.13474953 0.02937798 -0.040118419
-0.13409862 0.029450765 -0.039823335
-0.13362882 0.029915968 -0.040106885
-0.13325022 0.030576508 -0.040679097
-0.13250811 0.030453956 -0.040095352
-0.13194776 0.03072295 -0.040089585
-0.13129576 0.030796258 -0.039794482
-0.1307352 0.031065356 -0.039788716
-0.13008249 0.031138822 -0.039493386
-0.1295217 0.031408027 -0.039487615
-0.12886825 0.031481653 -0.039192054
-0.12849292 0.032141745 -0.039765637
-0.12793235 0.032410845 -0.039759863
-0.12746494 0.032874905 -0.040043443
-0.12699789 0.033338603 -0.0403268
-0.12634423 0.033412892 -0.040031906
-0.1255962 0.033292443 -0.039447207
-0.12503541 0.033561647 -0.039441437
-0.12438023 0.033636104 -0.039145857
-0.12400836 0.034294534 -0.039719477
-0.12344779 0.034563635 -0.039713707
-0.12288722 0.034832731 -0.03970794
-0.12232665 0.035101831 -0.039702166
-0.12176608 0.035370927 -0.039696399
-0.12120552 0.035640027 -0.039690629
-0.12064495 0.035909124 -0.039684862
-0.12008438 0.036178224 -0.039679088
-0.11952381 0.03644732 -0.039673321
-0.11886676 0.036522869 -0.039377946
-0.11830597 0.036792073 -0.039372172
-0.11764819 0.036867782 -0.03907657
-0.1171844 0.037330475 -0.039360631
-0.11662361 0.037599679 -0.039354857
-0.11616039 0.038061909 -0.039638702
-0.11559983 0.038331009 -0.039632931
-0.11503925 0.038600106 -0.039627165
-0.11447868 0.038869206 -0.03962139
-0.11372118 0.038752928 -0.039036147
-0.11316017 0.039022237 -0.039030377
-0.11269812 0.039484095 -0.039314453
-0.1122364 0.039945599 -0.039598312
-0.11157653 0.0400225 -0.039302912
-0.11101575 0.040291701 -0.039297137
-0.11035515 0.040368766 -0.039001502
-0.10969405 0.040445894 -0.038705643
-0.10913283 0.040715307 -0.038699862
-0.1085716 0.040984716 -0.038694087
-0.10801038 0.041254129 -0.038688313
-0.10744917 0.041523539 -0.038682535
-0.10688794 0.041792944 -0.038676757
-0.10642813 0.042253915 -0.038961086
-0.10566381 0.042140171 -0.038374878
-0.10510236 0.042409685 -0.038369097
-0.10454092 0.042679198 -0.038363319
-0.10387705 0.042757284 -0.038066983
-0.10341804 0.043218233 -0.038351763
-0.10285661 0.043487743 -0.038345985
-0.10229518 0.04375726 -0.038340207
-0.10173374 0.044026777 -0.038334426
-0.1011723 0.044296291 -0.038328648
-0.10061086 0.044565808 -0.03832287
-0.10004942 0.044835318 -0.038317088
-0.099592082 0.045295287 -0.038601667
-0.09903086 0.045564696 -0.038595889
-0.0982605 0.045453478 -0.03800917
-0.097383872 0.045151353 -0.037130285
-0.09661074 0.045039594 -0.036541291
-0.096047997 0.045309734 -0.036535498
-0.095485248 0.04557988 -0.036529705
-0.094710037 0.045468364 -0.03593979
-0.093826883 0.045165434 -0.035056096
-0.093048871 0.045053381 -0.034463882
-0.092484593 0.045324266 -0.034458071
-0.091920316 0.045595143 -0.034452267
-0.091356039 0.04586602 -0.034446456
-0.090575501 0.045754425 -0.033853311
-0.089902297 0.045834165 -0.033553477
-0.089228585 0.045913961 -0.033253416
-0.088445157 0.045802232 -0.032658413
-0.087550871 0.04549839 -0.031767074
-0.086874656 0.045578245 -0.031465612
-0.086308166 0.04585018 -0.031459779
-0.085631199 0.045930203 -0.031158077
-0.084731854 0.045625918 -0.030263236
-0.083941847 0.045513526 -0.029663557
-0.083374031 0.045786101 -0.029657712
-0.082694322 0.045866288 -0.029354595
-0.081901789 0.045753948 -0.028753499
-0.081108004 0.045641433 -0.028151458
-0.080539078 0.045914546 -0.028145604
-0.079856917 0.045994937 -0.027841298
-0.079174228 0.046075396 -0.027536754
-0.078377053 0.045962956 -0.02693281
-0.077349663 0.045463577 -0.025727944
-0.076549165 0.045350391 -0.025121149
-0.075977996 0.04562458 -0.025115268
-0.07529135 0.045705173 -0.024808571
-0.07448829 0.045592044 -0.024200331
-0.073683955 0.045478735 -0.023591131
-0.072995052 0.045559432 -0.023283225
-0.072422527 0.045834269 -0.023277331
-0.071498267 0.045526747 -0.022363942
-0.070925064 0.045801912 -0.022358041
-0.070351861 0.046077073 -0.022352142
-0.069778658 0.046352234 -0.022346241
-0.069441848 0.047014922 -0.022945598
-0.068513684 0.046708677 -0.022031453
-0.067344896 0.04601277 -0.020506991
-0.06653107 0.045899257 -0.019891962
-0.065715939 0.045785565 -0.019275956
-0.065140463 0.046061818 -0.019270033
-0.064444333 0.046143197 -0.018958699
-0.06362658 0.04602956 -0.018341215
-0.063050419 0.046306144 -0.018335285
-0.062474255 0.046582729 -0.018329356
-0.06189809 0.046859313 -0.018323425
-0.061077662 0.046746157 -0.017704947
-0.060501043 0.047022961 -0.017699011
-0.05992442 0.047299765 -0.017693074
-0.059101764 0.04718687 -0.017073603
-0.05840129 0.04726892 -0.016760526
-0.056706943 0.045785286 -0.013979276
-0.056002714 0.045867108 -0.01366371
-0.055297915 0.045948993 -0.013347891
-0.054341245 0.045637663 -0.012410868
-0.053760692 0.045916356 -0.012404892
-0.053180147 0.046195041 -0.012398916
-0.052346483 0.046080492 -0.01177098
-0.051638529 0.046162657 -0.011453642
-0.050419867 0.045456149 -0.0098871095
-0.049709432 0.045538265 -0.0095682498
-0.048998423 0.045620449 -0.009249134
-0.048415542 0.045900255 -0.0092431344
-0.04783266 0.046180066 -0.0092371348
-0.14009833 0.0039480133 -0.01159742
-0.13997492 0.0052936221 -0.013146075
-0.13966927 0.0062097022 -0.01406991
-0.13908964 0.0064879456 -0.014063944
-0.13933422 0.0086675594 -0.01683411
-0.13939524 0.010413478 -0.018973671
-0.13972768 0.012772848 -0.022012156
-0.13996747 0.014907815 -0.024725718
-0.1399363 0.016413979 -0.02652213
-0.13963597 0.017301114 -0.027414227
-0.13906635 0.017574549 -0.027408363
-0.13858706 0.018051906 -0.027701357
-0.13828878 0.018935723 -0.028590668
-0.13817161 0.020222489 -0.030072104
-0.13814488 0.021705609 -0.031843353
-0.13811825 0.023181792 -0.033606324
-0.13791257 0.024252344 -0.034775127
-0.13761786 0.025120689 -0.035647895
-0.13732384 0.02598701 -0.03651863
-0.13720977 0.027246658 -0.037969213
-0.13682753 0.027910799 -0.038544405
-0.13644589 0.028573912 -0.039118715
-0.13606483 0.029235998 -0.039692126
-0.13550448 0.029504994 -0.039686359
-0.13494413 0.029773986 -0.039680593
-0.13438377 0.03004298 -0.039674826
-0.13400461 0.030703422 -0.040247373
-0.13344468 0.030972209 -0.040241607
-0.13270271 0.030849963 -0.039657526
-0.13214236 0.031118957 -0.039651755
-0.13149045 0.031192416 -0.039356489
-0.13102166 0.031656947 -0.039640222
-0.13036931 0.031730615 -0.039344948
-0.12980875 0.031999711 -0.039339181
-0.12924817 0.032268811 -0.039333407
-0.12878025 0.032732923 -0.039617151
-0.12821989 0.033001918 -0.039611381
-0.1278455 0.033660073 -0.040183976
-0.12747166 0.03431721 -0.040755685
-0.12672564 0.034197647 -0.04017245
-0.12588476 0.0338834 -0.039298791
-0.12523016 0.033957958 -0.039003272
-0.12476362 0.034421597 -0.03928725
-0.12420305 0.034690693 -0.039281484
-0.12364248 0.034959793 -0.03927571
-0.12317672 0.035422865 -0.039559476
-0.12261637 0.035691861 -0.039553706
-0.12196077 0.035767086 -0.039258398
-0.12168637 0.03661672 -0.040120583
-0.12103091 0.036692251 -0.039825726
-0.12047078 0.036961138 -0.03981996
-0.1198146 0.037036832 -0.039524868
-0.11915792 0.037112579 -0.039229553
-0.11859735 0.037381675 -0.039223783
-0.11793994 0.037457589 -0.038928233
-0.11737916 0.03772679 -0.038922463
-0.11720701 0.038767014 -0.040074479
-0.11664709 0.039035801 -0.040068716
-0.11608718 0.039304588 -0.040062949
-0.11562487 0.039765447 -0.040346086
-0.11467337 0.039265364 -0.039183397
-0.1141128 0.039534461 -0.039177623
-0.113355 0.039418701 -0.038592041
-0.112794 0.039688006 -0.038586266
-0.11233208 0.040149614 -0.038870513
-0.11177129 0.040418811 -0.038864743
-0.11121051 0.040688016 -0.038858972
-0.11054999 0.040765237 -0.038563166
-0.10998898 0.041034542 -0.038557395
-0.10952815 0.041495621 -0.038841657
-0.10896736 0.041764826 -0.038835883
-0.1085071 0.042225447 -0.039119925
-0.10794653 0.042494547 -0.039114159
-0.10748684 0.042954706 -0.039397985
-0.1068254 0.043032739 -0.039102618
-0.10616343 0.043110836 -0.038807023
-0.10529735 0.042806458 -0.037930425
-0.10473591 0.043075975 -0.037924644
-0.10417447 0.043345489 -0.037918866
-0.10361303 0.043615006 -0.037913091
-0.1030516 0.043884519 -0.03790731
-0.10249016 0.044154033 -0.037901532
-0.10203187 0.044614267 -0.038186267
-0.10136728 0.044693064 -0.037889972
-0.10080585 0.044962578 -0.037884194
-0.10024441 0.045232095 -0.037878413
-0.099682972 0.045501608 -0.037872639
-0.099121526 0.045771126 -0.037866861
-0.098141462 0.04527881 -0.036696717
-0.097368918 0.045167148 -0.036107387
-0.096700713 0.045246378 -0.035809483
-0.096243434 0.045707434 -0.036095802
-0.095574789 0.045786873 -0.035797894
-0.094586544 0.045293238 -0.034621347
-0.09380912 0.045181286 -0.034028795
-0.093030497 0.045069162 -0.033435322
-0.092465773 0.045340247 -0.033429507
-0.091901056 0.045611341 -0.033423696
-0.09133634 0.04588243 -0.033417881
-0.090663441 0.045962214 -0.033117887
-0.089990012 0.046042062 -0.032817654
-0.08931607 0.04612197 -0.032517184
-0.088423148 0.045818627 -0.031626031
-0.087747529 0.045898575 -0.031324632
-0.087071389 0.045978583 -0.031022994
-0.086504906 0.046250518 -0.031017162
-0.085828014 0.046330702 -0.030715289
-0.0849289 0.046026886 -0.029819924
-0.084139049 0.045914806 -0.029219899
-0.083347954 0.045802552 -0.028618934
-0.082779691 0.04607534 -0.028613085
-0.08187452 0.045770392 -0.027712787
-0.081305586 0.046043504 -0.02770693
-0.080623731 0.046123948 -0.027402453
-0.079941347 0.046204451 -0.027097734
-0.079144776 0.046092119 -0.026493447
-0.078346945 0.045979604 -0.025888208
-0.077318706 0.04547986 -0.024680749
-0.076632582 0.045560393 -0.024373876
-0.076061189 0.04583469 -0.024367996
-0.075258739 0.045721665 -0.02375941
-0.074338928 0.045414366 -0.022847673
-0.073766403 0.045689207 -0.02284178
-0.073193885 0.045964044 -0.022835886
-0.072387576 0.045850895 -0.022224886
-0.071579985 0.045737568 -0.021612918
-0.070888884 0.045818526 -0.02130362
-0.069842696 0.045315553 -0.020081712
-0.069386631 0.045786079 -0.020380164
-0.069167912 0.046644669 -0.021285906
-0.068594262 0.046920046 -0.021280002
-0.06754443 0.046418823 -0.020058058
-0.066491276 0.045916006 -0.018832233
-0.06579569 0.045997322 -0.018520726
-0.064979009 0.04588357 -0.017902896
-0.064402848 0.046160158 -0.017896965
-0.063705593 0.046241667 -0.017584713
-0.062886283 0.046127975 -0.016965399
-0.062431168 0.046600051 -0.017266277
-0.061854545 0.046876859 -0.017260341
-0.061033428 0.046763625 -0.016640523
-0.060456347 0.047040649 -0.016634585
-0.059879266 0.047317676 -0.016628645
-0.059179101 0.047399782 -0.016315389
-0.058107559 0.046896119 -0.015077727
-0.05690816 0.046194747 -0.013526575
-0.056079146 0.046080425 -0.012900796
-0.055123415 0.045769256 -0.011963236
-0.054417133 0.045851234 -0.01164623
-0.053710293 0.045933276 -0.01132897
-0.053002883 0.046015386 -0.011011455
-0.052421637 0.04629441 -0.011005472
-0.05158636 0.046179801 -0.010375662
-0.050494429 0.045670334 -0.0091189994
-0.04965559 0.045554947 -0.0084861508
-0.048943989 0.045637198 -0.008166343
-0.14020875 0.0041451957 -0.010831228
-0.14045018 0.006341082 -0.013622995
-0.13987055 0.0066193258 -0.013617028
-0.13929094 0.0068975687 -0.013611063
-0.13907804 0.0080218986 -0.014842119
-0.13932225 0.010192554 -0.017605091
-0.13947402 0.012139678 -0.020043857
-0.13971518 0.014281113 -0.022769777
-0.14004453 0.016612265 -0.025776584
-0.13983379 0.017703658 -0.026969174
-0.13935417 0.018180963 -0.027262341
-0.138965 0.018861342 -0.027853839
-0.1384863 0.019337632 -0.028146315
-0.13800797 0.019813549 -0.028438559
-0.13789138 0.021098094 -0.029919712
-0.13777527 0.022377623 -0.031395081
-0.13783936 0.024052152 -0.033453267
-0.13781352 0.025518849 -0.035207685
-0.13751929 0.026384708 -0.036078934
-0.13740483 0.027643586 -0.03753037
-0.13711196 0.028504297 -0.038396221
-0.13664065 0.028970225 -0.038680546
-0.13625945 0.029632006 -0.039254304
-0.13569909 0.029901 -0.039248534
-0.13513874 0.030169994 -0.039242767
-0.13457838 0.030438988 -0.039237
-0.13419907 0.031099124 -0.039809879
-0.13363914 0.031367909 -0.03980412
-0.13298832 0.031441409 -0.039509136
-0.13233697 0.031514965 -0.039213929
-0.13177663 0.031783957 -0.039208159
-0.1313079 0.03224808 -0.03949184
-0.13065591 0.032321949 -0.039196625
-0.13009557 0.032590941 -0.039190859
-0.1295352 0.032859936 -0.039185088
-0.12897485 0.033128928 -0.039179325
-0.12869245 0.033981293 -0.040041264
-0.12822545 0.03444403 -0.040324293
-0.12775883 0.034906406 -0.040607106
-0.12710647 0.034981187 -0.040312774
-0.12636018 0.034862135 -0.0397292
-0.12551887 0.034548655 -0.038855024
-0.1249583 0.034817755 -0.038849253
-0.12458627 0.035474762 -0.039422657
-0.1241205 0.035937279 -0.039706144
-0.12346599 0.036012542 -0.039411128
-0.12290586 0.036281433 -0.039405361
-0.12215545 0.036163244 -0.038820405
-0.12188083 0.037012424 -0.039683092
-0.12132091 0.037281211 -0.039677329
-0.12076098 0.037549999 -0.039671566
-0.12010518 0.037625886 -0.039376535
-0.11944886 0.03770183 -0.039081275
-0.1188885 0.037970826 -0.039075509
-0.11852131 0.038625143 -0.039648514
-0.11805807 0.039086267 -0.039931804
-0.11749837 0.039354946 -0.039926045
-0.11693866 0.039623629 -0.039920285
-0.11637896 0.039892312 -0.039914522
-0.11581925 0.040160995 -0.039908763
-0.11516179 0.040237863 -0.039613936
-0.11430748 0.039930623 -0.038739629
-0.11374691 0.040199723 -0.038733859
-0.11308762 0.040276721 -0.038438123
-0.11252684 0.040545925 -0.038432349
-0.11196606 0.04081513 -0.038426578
-0.11160392 0.041467752 -0.03900053
-0.11124235 0.042119365 -0.039573595
-0.11038349 0.041814312 -0.038699243
-0.10982292 0.042083409 -0.038693469
-0.10926235 0.042352509 -0.038687702
-0.10880215 0.04281272 -0.038971692
-0.1082418 0.043081716 -0.038965922
-0.10788283 0.043732084 -0.039539017
-0.1071211 0.043619704 -0.038954388
-0.10635819 0.043507148 -0.038368858
-0.1055941 0.04339442 -0.037782419
-0.10493089 0.043472748 -0.037485968
-0.10447165 0.043933243 -0.037770867
-0.10380802 0.044011779 -0.037474416
-0.10334922 0.044472065 -0.037759315
-0.10289077 0.044931993 -0.038043994
-0.10232978 0.045201298 -0.03803822
-0.10156226 0.045089841 -0.037451297
-0.10089724 0.045168854 -0.037154607
-0.10033558 0.045438472 -0.037148826
-0.099773929 0.04570809 -0.037143044
-0.099003546 0.045596894 -0.036554746
-0.098127104 0.045294706 -0.03567348
-0.097564362 0.045564845 -0.035667691
-0.096896231 0.045644231 -0.035369612
-0.096333265 0.045914479 -0.035363819
-0.09555842 0.045803182 -0.034772765
-0.094569378 0.04530919 -0.033593707
-0.093898252 0.045388691 -0.033294011
-0.093226619 0.045468248 -0.032994084
-0.092661895 0.045739342 -0.032988269
-0.091989517 0.045819074 -0.032688104
-0.091424577 0.046090268 -0.032682288
-0.090859644 0.046361461 -0.032676477
-0.090077795 0.046250127 -0.03208125
-0.089403622 0.046330146 -0.031780381
-0.088619731 0.046218656 -0.031183761
-0.087834612 0.046106987 -0.030586207
-0.087268129 0.046378922 -0.030580375
-0.086591527 0.046459153 -0.030278331
-0.085914411 0.046539444 -0.029976048
-0.085125946 0.046427853 -0.029376613
-0.084113561 0.045931354 -0.028180776
-0.083545305 0.046204146 -0.028174927
-0.082753129 0.04609203 -0.027572669
-0.082072109 0.046172459 -0.027268259
-0.081165031 0.045867268 -0.026365314
-0.080595426 0.046140701 -0.026359452
-0.080025837 0.046414129 -0.02635359
-0.079115272 0.046108864 -0.025448501
-0.078202561 0.045802876 -0.024541274
-0.077402428 0.045689911 -0.023933303
-0.076601028 0.04557677 -0.023324374
-0.076029174 0.045851279 -0.023318486
-0.075110294 0.04554414 -0.02240623
-0.074537769 0.045818977 -0.022400334
-0.073965244 0.046093814 -0.022394443
-0.073159538 0.04598077 -0.021783093
-0.072352558 0.045867544 -0.021170776
-0.071544312 0.045754138 -0.020557489
-0.07049875 0.045250867 -0.019333916
-0.069805577 0.045331825 -0.019022975
-0.068993054 0.045217682 -0.018406281
-0.068893112 0.046273239 -0.019620953
-0.068318553 0.046549056 -0.019615039
-0.067624778 0.046630498 -0.019304335
-0.066810854 0.046517428 -0.018688107
-0.06575527 0.046014167 -0.017458644
-0.06517911 0.046290752 -0.017452713
-0.064361289 0.046177141 -0.016833542
-0.063663468 0.046258733 -0.016520618
-0.062843464 0.046144959 -0.015899966
-0.062022161 0.046031009 -0.015278323
-0.061444387 0.046308365 -0.015272375
-0.060252611 0.045606382 -0.013722851
-0.060288846 0.046863079 -0.015260482
-0.059711073 0.047140434 -0.015254535
-0.059133302 0.04741779 -0.015248587
-0.057936911 0.046718016 -0.013699016
-0.056984928 0.046408113 -0.012763912
-0.056155644 0.046293914 -0.012137272
-0.055199619 0.045982875 -0.011198419
-0.054367241 0.04586811 -0.010569268
-0.053533528 0.045753159 -0.0099391071
-0.053204745 0.046426158 -0.010557302
-0.052623499 0.046705183 -0.01055132
-0.051534116 0.046196967 -0.0092959488
-0.050696783 0.046082094 -0.0086637512
-0.049858104 0.045967042 -0.0080305366
-0.1400443 0.0037002203 -0.0091260485
-0.14046924 0.0063263066 -0.012549769
-0.14007185 0.007028949 -0.013164148
-0.13949223 0.0073071923 -0.013158181
-0.13891262 0.0075854352 -0.013152216
-0.13870032 0.008708667 -0.014384004
-0.13921933 0.011503992 -0.018067738
-0.13982379 0.014479417 -0.022019509
-0.13970272 0.015784618 -0.023525007
-0.14003161 0.0181062 -0.026524123
-0.13964175 0.018786903 -0.027116433
-0.1392525 0.01946654 -0.027707813
-0.13877387 0.019942407 -0.02800023
-0.13829561 0.020417899 -0.028292419
-0.13781774 0.020893019 -0.028584378
-0.13797194 0.022777807 -0.030952636
-0.13803548 0.024451246 -0.033012029
-0.13818811 0.026314002 -0.035352737
-0.13780423 0.026980411 -0.0359313
-0.1375999 0.028040513 -0.037091523
-0.13730681 0.028900763 -0.037957884
-0.13692494 0.029562855 -0.038532421
-0.1366332 0.030419679 -0.039395444
-0.13589369 0.030297007 -0.038810708
-0.13533334 0.030566001 -0.038804941
-0.134773 0.030834995 -0.03879917
-0.13439353 0.031494826 -0.039372392
-0.1338336 0.031763609 -0.039366629
-0.13318285 0.031837262 -0.039071478
-0.1326227 0.03210615 -0.039065715
-0.13215384 0.032569971 -0.03934934
-0.13159391 0.032838758 -0.039343577
-0.131034 0.033107545 -0.039337814
-0.13047409 0.033376332 -0.039332051
-0.12991416 0.033645116 -0.039326288
-0.12935425 0.033913903 -0.039320525
-0.12897925 0.034570847 -0.039892897
-0.12841977 0.034839425 -0.039887141
-0.12795307 0.035301652 -0.040170126
-0.12730078 0.035376582 -0.039875627
-0.1267413 0.035645161 -0.039869867
-0.12599473 0.035526622 -0.039285947
-0.12562232 0.036182318 -0.039858349
-0.12506284 0.036450896 -0.039852589
-0.12431496 0.03633298 -0.039268658
-0.12375505 0.036601767 -0.039262895
-0.12319512 0.03687055 -0.039257132
-0.12263521 0.037139341 -0.039251365
-0.12207529 0.037408128 -0.039245605
-0.12170591 0.038062375 -0.039818037
-0.12095544 0.037945699 -0.039234076
-0.12039553 0.038214486 -0.039228313
-0.1198356 0.038483273 -0.039222553
-0.11927569 0.03875206 -0.03921679
-0.11900471 0.039597254 -0.040078018
-0.11844544 0.039865728 -0.040072262
-0.1177895 0.039942425 -0.03977773
-0.11713304 0.040019177 -0.039482962
-0.11657334 0.04028786 -0.039477203
-0.11601363 0.040556546 -0.039471444
-0.11535624 0.040633563 -0.039176449
-0.11479633 0.04090235 -0.039170686
-0.11394159 0.040595882 -0.038295865
-0.11328239 0.040673036 -0.037999954
-0.11291923 0.04132577 -0.038574237
-0.11275411 0.042359635 -0.0397259
-0.11229345 0.042818964 -0.04000894
-0.11163513 0.042896792 -0.039714381
-0.11087689 0.042783856 -0.039130345
-0.11031696 0.043052644 -0.039124582
-0.10955712 0.042939734 -0.038539629
-0.10919712 0.043590214 -0.039113052
-0.10863721 0.043859001 -0.039107293
-0.10807729 0.044127788 -0.03910153
-0.10751736 0.044396572 -0.039095763
-0.10675535 0.044284705 -0.038510796
-0.10589062 0.043981925 -0.037634529
-0.10522779 0.04406045 -0.037338138
-0.10466657 0.044329859 -0.037332363
-0.10410535 0.044599272 -0.037326586
-0.10374901 0.045249473 -0.037901834
-0.10318823 0.045518678 -0.037896059
-0.10252461 0.045597766 -0.037599884
-0.10186046 0.045676913 -0.037303478
-0.1010923 0.04556578 -0.036715761
-0.10032294 0.045454472 -0.036127131
-0.099760845 0.045724299 -0.036121346
-0.098989859 0.045613028 -0.0355318
-0.098322548 0.045692403 -0.035233784
-0.097759798 0.045962542 -0.035227992
-0.097197048 0.046232689 -0.035222203
-0.096528783 0.046312328 -0.034923948
-0.095542014 0.045819513 -0.033746045
-0.094658799 0.045516644 -0.032858755
-0.094094306 0.045787629 -0.032852944
-0.093422748 0.045867343 -0.032552846
-0.092750654 0.045947123 -0.032252509
-0.092185713 0.046218321 -0.032246694
-0.091620781 0.046489514 -0.032240879
-0.090947732 0.046569567 -0.031940307
-0.089948393 0.046075229 -0.030753139
-0.089382358 0.046346955 -0.030747315
-0.088707112 0.046427108 -0.03044557
-0.087921754 0.046315562 -0.029847207
-0.087245159 0.046395797 -0.029544756
-0.086678229 0.046667945 -0.02953892
-0.086000867 0.046748351 -0.029236231
-0.085212164 0.046636879 -0.028635982
-0.084310919 0.046332952 -0.02773677
-0.083631046 0.046413414 -0.027432663
-0.082838625 0.046301417 -0.026829585
-0.081932448 0.045996375 -0.025926124
-0.081250042 0.046076898 -0.025620589
-0.080680214 0.046350438 -0.025614724
-0.080110386 0.046623979 -0.025608858
-0.079199567 0.046318837 -0.024702534
-0.078286596 0.046012975 -0.023794068
-0.077256635 0.045512494 -0.022581397
-0.076684564 0.045787115 -0.022575509
-0.075766094 0.045479774 -0.021662008
-0.075193338 0.04575472 -0.021656113
-0.07462059 0.046029665 -0.021650217
-0.074047834 0.04630461 -0.021644324
-0.073358528 0.046385698 -0.021335404
-0.072551712 0.046272792 -0.020722732
-0.071860999 0.046353962 -0.02041308
-0.070698373 0.045657076 -0.018884806
-0.069768392 0.045348123 -0.017962558
-0.069192916 0.045624379 -0.017956637
-0.068617441 0.045900632 -0.017950712
-0.068518087 0.046955109 -0.019166106
-0.067824401 0.047036711 -0.018855225
-0.067010634 0.046923965 -0.018238639
-0.065955378 0.046421349 -0.017008461
-0.065258741 0.046502966 -0.016695855
-0.06444066 0.046389483 -0.016075836
-0.063621275 0.046275817 -0.01545483
-0.062800586 0.046161968 -0.014832831
-0.061856329 0.045852017 -0.013900951
-0.060909808 0.045541316 -0.012966837
-0.060207538 0.045623004 -0.012650992
-0.059628151 0.045901138 -0.012645029
-0.059295814 0.046571329 -0.013258594
-0.058716893 0.046849243 -0.013252636
-0.058014028 0.046931423 -0.012937032
-0.056937188 0.046425398 -0.011689999
-0.056107201 0.046311125 -0.011061998
-0.055401322 0.046393324 -0.01074463
-0.054317266 0.045885015 -0.0094905775
-0.053482842 0.045769986 -0.0088590439
-0.052900661 0.046049457 -0.0088530518
-0.05231848 0.046328928 -0.0088470597
-0.051609091 0.046411362 -0.0085279103
-0.13966399 0.0043916809 -0.0086648036
-0.13999923 0.0068025449 -0.011779826
-0.13941891 0.0070811226 -0.011773854
-0.13883859 0.0073597003 -0.01176788
-0.13853431 0.0082733016 -0.012693368
-0.13914615 0.011284368 -0.016698077
-0.1399325 0.014677879 -0.021268649
-0.13981116 0.015983203 -0.022776222
-0.1396002 0.017078595 -0.023976827
-0.13965982 0.018782174 -0.026073208
-0.13953978 0.020071261 -0.027561903
-0.13906123 0.020546703 -0.027854262
-0.13849297 0.020819495 -0.027848413
-0.1381954 0.02169833 -0.028735809
-0.13843803 0.023779467 -0.031397179
-0.13832122 0.025049787 -0.032865074
-0.1384729 0.026909962 -0.035205334
-0.13799959 0.027377954 -0.035491776
-0.13761614 0.028043022 -0.036069784
-0.13741226 0.02910066 -0.037228893
-0.13711964 0.029959016 -0.038094424
-0.13682765 0.03081538 -0.038957953
-0.1360883 0.030693013 -0.038372878
-0.13570783 0.031352952 -0.038946431
-0.1351479 0.031621739 -0.038940664
-0.13467824 0.032085564 -0.039224233
-0.13411853 0.032354247 -0.03921847
-0.13346814 0.032428101 -0.038923379
-0.13308996 0.033086188 -0.03949606
-0.13253048 0.033354767 -0.039490297
-0.13197099 0.033623349 -0.039484542
-0.13141151 0.033891927 -0.039478783
-0.13066854 0.033772029 -0.03889456
-0.13010862 0.034040816 -0.038888797
-0.12964092 0.03450371 -0.039172381
-0.12917355 0.034966245 -0.039455749
-0.12870657 0.035428416 -0.039738897
-0.12814729 0.035696894 -0.039733138
-0.1274951 0.035771981 -0.039438471
-0.1269356 0.036040559 -0.039432716
-0.12637612 0.036309134 -0.039426956
-0.12591021 0.036770795 -0.039710112
-0.12535094 0.037039272 -0.039704356
-0.12479167 0.037307747 -0.039698601
-0.12413817 0.037383452 -0.039403923
-0.12338958 0.037266254 -0.038819641
-0.12282966 0.037535042 -0.038813878
-0.1224597 0.038189191 -0.039386645
-0.12190022 0.038457766 -0.039380886
-0.12134073 0.038726348 -0.03937513
-0.12078124 0.038994927 -0.039369371
-0.12022176 0.039263505 -0.039363608
-0.11956624 0.039339997 -0.039068688
-0.11919894 0.0399925 -0.039641038
-0.11863967 0.040260974 -0.039635282
-0.1179838 0.040337823 -0.039340578
-0.11732742 0.040414724 -0.039045643
-0.11676772 0.040683411 -0.039039884
-0.11611062 0.04076048 -0.038744722
-0.1155507 0.041029267 -0.038738959
-0.11518636 0.041680716 -0.039311782
-0.11472477 0.042140305 -0.039594986
-0.1141655 0.042408779 -0.03958923
-0.11360622 0.042677253 -0.039583474
-0.11304695 0.042945728 -0.039577715
-0.11258636 0.04340465 -0.039860707
-0.1120273 0.043673024 -0.039854955
-0.11126995 0.043560769 -0.039271474
-0.11061098 0.043638919 -0.038976513
-0.11005127 0.043907601 -0.038970754
-0.10949158 0.044176284 -0.038964994
-0.10893187 0.044444967 -0.038959231
-0.10827174 0.044523489 -0.038664039
-0.10771182 0.044792276 -0.038658276
-0.1071519 0.045061063 -0.038652513
-0.10618692 0.044568978 -0.037486754
-0.1054227 0.044457074 -0.03689963
-0.10486148 0.044726484 -0.036893856
-0.10430025 0.044995893 -0.036888082
-0.10404603 0.045835812 -0.03775401
-0.10348546 0.046104908 -0.03774824
-0.10261659 0.045804128 -0.036870752
-0.10195223 0.045883384 -0.036573946
-0.10108025 0.045581877 -0.035693735
-0.10041425 0.045661177 -0.03539601
-0.099956065 0.046121538 -0.03568216
-0.099185228 0.046010576 -0.035092272
-0.098517984 0.0460901 -0.034794088
-0.097955242 0.046360239 -0.034788296
-0.097392492 0.046630386 -0.034782507
-0.09682975 0.046900529 -0.03477671
-0.095631748 0.046027005 -0.033011727
-0.094854854 0.045915581 -0.032417689
-0.094183587 0.045995347 -0.032117415
-0.093511797 0.046075176 -0.031816915
-0.092624478 0.045772012 -0.030925635
-0.092058875 0.046043526 -0.030919813
-0.091385208 0.046123497 -0.030618371
-0.090602562 0.046011798 -0.030020609
-0.090036303 0.046283629 -0.030014781
-0.089361057 0.046363793 -0.029712632
-0.0885759 0.04625215 -0.029113462
-0.08800897 0.046524301 -0.029107627
-0.087112069 0.046220597 -0.028210025
-0.086544469 0.046493065 -0.028204184
-0.085976884 0.046765532 -0.028198341
-0.085076533 0.046461757 -0.027298614
-0.084396958 0.046542272 -0.026994335
-0.083605133 0.046430375 -0.026390914
-0.082699865 0.046125483 -0.025486937
-0.081792466 0.045819875 -0.024580823
-0.081222191 0.046093632 -0.024574954
-0.080765061 0.046560336 -0.02486941
-0.080195017 0.046833985 -0.024863541
-0.079397708 0.04672201 -0.024256783
-0.078370705 0.046223238 -0.023046274
-0.077455312 0.045916781 -0.022134412
-0.076768167 0.04599762 -0.021826051
-0.075965002 0.045884542 -0.021214494
-0.075392254 0.046159487 -0.021208599
-0.074819505 0.046434432 -0.021202704
-0.074246749 0.046709377 -0.021196811
-0.073440954 0.046596777 -0.02058427
-0.072633877 0.046483994 -0.019970762
-0.071942925 0.046565279 -0.019660693
-0.070780002 0.045868538 -0.018130317
-0.069968253 0.045754816 -0.017512912
-0.069392778 0.046031073 -0.017506991
-0.068817303 0.046307329 -0.017501066
-0.06824182 0.046583585 -0.017495144
-0.067666344 0.046859842 -0.017489219
-0.066971213 0.046941534 -0.017177179
-0.066035308 0.046633616 -0.016251428
-0.065338433 0.046715353 -0.015938397
-0.064520091 0.046601988 -0.015317528
-0.063700445 0.046488449 -0.01469567
-0.062757641 0.046179008 -0.013763996
-0.062057227 0.046260823 -0.013448974
-0.060988143 0.045754332 -0.012204255
-0.060408756 0.046032466 -0.012198292
-0.059829369 0.046310596 -0.012192328
-0.059249982 0.04658873 -0.012186365
-0.05879432 0.047062699 -0.012490473
-0.057842989 0.046753079 -0.011553545
-0.057014059 0.046639111 -0.010925686
-0.056308821 0.046721406 -0.010608391
-0.055477668 0.046607278 -0.0099790189
-0.054267209 0.045901943 -0.0084101539
-0.13965142 0.0059369998 -0.0094557032
-0.13934539 0.0068545095 -0.010386196
-0.13885638 0.0073457225 -0.010691879
-0.13836776 0.007836543 -0.010997317
-0.13898143 0.01085467 -0.015017191
-0.13958879 0.013841696 -0.018995641
-0.1399197 0.016181946 -0.022026844
-0.13952808 0.01686739 -0.022625508
-0.13967793 0.018777439 -0.025028341
-0.13946792 0.019864572 -0.026221169
-0.13925858 0.0209483 -0.027410258
-0.13878033 0.021423211 -0.027702563
-0.13866232 0.022703605 -0.029183997
-0.13872407 0.024379205 -0.031250626
-0.13851728 0.025448725 -0.032424007
-0.13866834 0.027307659 -0.034765635
-0.13819495 0.027775498 -0.035052251
-0.13772193 0.028242974 -0.035338644
-0.13760717 0.029497281 -0.036790386
-0.1373143 0.030355174 -0.03765643
-0.13702211 0.03121108 -0.038520467
-0.13655172 0.031675063 -0.038804196
-0.13599204 0.03194375 -0.038798433
-0.13543233 0.032212429 -0.03879267
-0.13496274 0.032675851 -0.039076183
-0.13440326 0.032944426 -0.039070427
-0.13393424 0.033407383 -0.039353721
-0.13328427 0.033481587 -0.039058905
-0.13272479 0.033750165 -0.03905315
-0.1321653 0.03401874 -0.03904739
-0.13169716 0.034481283 -0.039330695
-0.13132079 0.035137031 -0.0399024
-0.13076195 0.035405301 -0.039896648
-0.12992735 0.035093058 -0.039024357
-0.12946007 0.035555188 -0.039307669
-0.1289008 0.035823662 -0.039301913
-0.12834153 0.036092136 -0.039296158
-0.12778226 0.036360614 -0.039290402
-0.12712991 0.036435954 -0.038995564
-0.12657043 0.036704533 -0.038989805
-0.12610444 0.037166037 -0.039273132
-0.12554516 0.037434515 -0.039267376
-0.1249859 0.037702993 -0.03926162
-0.1245207 0.038163934 -0.039544731
-0.12377299 0.038047429 -0.038961008
-0.12330808 0.038508415 -0.03924435
-0.12274881 0.038776889 -0.039238594
-0.12209452 0.038853165 -0.038943738
-0.12153503 0.039121743 -0.038937978
-0.12097555 0.039390322 -0.038932215
-0.12041606 0.0396589 -0.03892646
-0.11985657 0.039927479 -0.038920701
-0.11939317 0.040387746 -0.039204057
-0.1188339 0.04065622 -0.039198298
-0.11837108 0.041116025 -0.039481435
-0.11761862 0.041001797 -0.038897667
-0.11696211 0.041078955 -0.038602561
-0.1164024 0.041347641 -0.038596801
-0.11594015 0.041807532 -0.038880389
-0.11547827 0.042267069 -0.039163761
-0.114919 0.042535547 -0.039158005
-0.11445769 0.042994626 -0.039441153
-0.11389863 0.043262996 -0.039435402
-0.11343789 0.04372162 -0.039718337
-0.11287905 0.043989886 -0.039712586
-0.11222146 0.044068113 -0.039418139
-0.11166241 0.044336487 -0.039412383
-0.11090477 0.044224743 -0.038828563
-0.11044482 0.044683348 -0.039111953
