# .PCD v0.7 - Point Cloud Data file format
VERSION 0.7
FIELDS x y z
SIZE 4 4 4
TYPE F F F
COUNT 1 1 1
WIDTH 1229
HEIGHT 1
VIEWPOINT 0 0 0 1 0 0 0
POINTS 1229
DATA ascii
-0.095712267 -0.016169496 -0.040732808
-0.09398935 -0.016724974 -0.039209913
-0.093625501 -0.01599662 -0.039808962
-0.093151182 -0.015492413 -0.040105116
-0.092677243 -0.014988615 -0.040401023
-0.092315041 -0.014262835 -0.040998142
-0.09117166 -0.015095402 -0.039482433
-0.089910917 -0.016155304 -0.037656683
-0.089323789 -0.015873455 -0.037650637
-0.08896298 -0.015144316 -0.038252164
-0.088262968 -0.015086135 -0.037942462
-0.086190961 -0.017724184 -0.033966292
-0.077455394 -0.01606827 -0.031113805
-0.07887356 -0.011971459 -0.036329661
-0.078167744 -0.011911848 -0.036018427
-0.077933028 -0.010962222 -0.036927182
-0.077934042 -0.0095723057 -0.038440894
-0.077582888 -0.008849144 -0.03904105
-0.077114664 -0.0083474191 -0.039337747
-0.076410994 -0.0082865851 -0.039028987
-0.07356102 -0.012223543 -0.033224139
-0.072970539 -0.011940086 -0.033218063
-0.075008884 -0.0067833047 -0.039918382
-0.07489755 -0.0056260442 -0.041118931
-0.074313253 -0.0053455583 -0.041112918
-0.073610164 -0.0052836612 -0.040805619
-0.055672437 -0.020055806 -0.015164393
-0.055198513 -0.019533519 -0.015480443
-0.054594249 -0.019243445 -0.015474224
-0.053464945 -0.019881953 -0.014177282
-0.052331865 -0.020522594 -0.012876002
-0.051327799 -0.020931633 -0.011895619
-0.032674346 0.029467354 -0.05682331
-0.032102726 0.029741758 -0.056817427
-0.031531107 0.030016162 -0.056811545
-0.030693186 0.029890604 -0.056228325
-0.029318335 0.028962201 -0.054484926
-0.028206689 0.028432716 -0.053316083
-0.097857103 -0.019179132 -0.037580546
-0.098145403 -0.017102621 -0.039998129
-0.097669646 -0.016598376 -0.040293965
-0.097194269 -0.016094536 -0.040589556
-0.096500114 -0.016036952 -0.040281925
-0.095254339 -0.017097421 -0.038461071
-0.093354434 -0.015078821 -0.039647844
-0.092880413 -0.01457519 -0.039943941
-0.092295408 -0.014294364 -0.039937917
-0.091375075 -0.014681476 -0.039024793
-0.090452507 -0.015069528 -0.038109455
-0.089753382 -0.015011341 -0.03779982
-0.089166723 -0.014729721 -0.037793782
-0.087785229 -0.016014813 -0.035655633
-0.087082759 -0.015956819 -0.035343997
-0.085460447 -0.017701333 -0.032576501
-0.076224491 -0.019800957 -0.025359087
-0.077661052 -0.015649779 -0.03065112
-0.079077795 -0.011555853 -0.035870168
-0.078489706 -0.011273546 -0.035864111
-0.078841247 -0.0092184078 -0.038292132
-0.078255065 -0.0089370143 -0.038286101
-0.077786386 -0.00843505 -0.038583227
-0.077200443 -0.0081537701 -0.038577195
-0.074381344 -0.0079097282 -0.03733892
-0.075100474 -0.0052131191 -0.0406624
-0.074516185 -0.0049326331 -0.040656388
-0.073337317 -0.0057460247 -0.039140597
-0.056096237 -0.020616429 -0.013729279
-0.055490967 -0.020325871 -0.013723048
-0.054885697 -0.020035315 -0.013716819
-0.054673351 -0.019048205 -0.014679618
-0.053543705 -0.01968665 -0.013380807
-0.052542422 -0.020094128 -0.012402288
-0.051538624 -0.020502629 -0.01142131
-0.032301247 0.030145727 -0.056370795
-0.031729627 0.030420132 -0.056364913
-0.031158004 0.030694535 -0.05635903
-0.030186338 0.030369567 -0.055486258
-0.028540788 0.029039875 -0.053158585
-0.098348573 -0.016689196 -0.039541047
-0.097872727 -0.016185118 -0.039837062
-0.09728796 -0.015904404 -0.039831042
-0.096483856 -0.016069924 -0.039220691
-0.095457919 -0.016683161 -0.038003061
-0.093083583 -0.014161764 -0.039486855
-0.092498578 -0.013880938 -0.039480831
-0.091578491 -0.014267551 -0.038567156
-0.090318732 -0.01532544 -0.036739182
-0.089957125 -0.014596744 -0.037341442
-0.089370467 -0.014315124 -0.037335403
-0.087989554 -0.015599038 -0.035195954
-0.086600766 -0.016890269 -0.033044312
-0.085895814 -0.016832465 -0.032730725
-0.085074879 -0.017000293 -0.032108869
-0.07643158 -0.019379539 -0.024893166
-0.077747986 -0.015456978 -0.029878628
-0.079164714 -0.011362721 -0.03510512
-0.078928776 -0.010413763 -0.036014985
-0.079628594 -0.0077027748 -0.039348368
-0.079509862 -0.0065444992 -0.040549353
-0.077989876 -0.008020957 -0.0381254
-0.076578356 -0.0092854518 -0.03599079
-0.073380686 -0.01110549 -0.032295331
-0.07541538 -0.0059561203 -0.039003842
-0.075775117 -0.0039280229 -0.041410029
-0.074837409 -0.0043015145 -0.040501263
-0.07342153 -0.0055514039 -0.038380273
-0.058551837 -0.018912768 -0.015848985
-0.05730135 -0.019781761 -0.014232174
-0.05669684 -0.019491568 -0.014225951
-0.055701174 -0.019898118 -0.013250125
-0.055095904 -0.019607563 -0.013243895
-0.054096986 -0.02001477 -0.012265612
-0.053490955 -0.019723848 -0.012259374
-0.052884921 -0.019432927 -0.012253136
-0.051881973 -0.019840425 -0.011272382
-0.032060757 0.031023635 -0.05620696
-0.031622089 0.031497199 -0.056489531
-0.03105092 0.031771384 -0.056483652
-0.029812796 0.031048743 -0.055033211
-0.02803128 0.029520206 -0.052412663
-0.098224692 -0.01694645 -0.038175832
-0.098075815 -0.015771858 -0.039380163
-0.097491048 -0.015491146 -0.039374147
-0.096577384 -0.015879553 -0.038460705
-0.095661499 -0.0162689 -0.037545051
-0.09441065 -0.017332517 -0.03571311
-0.086660042 -0.024055256 -0.024217281
-0.086063482 -0.023768885 -0.024211142
-0.085931838 -0.022561368 -0.025460687
-0.088782199 -0.015465685 -0.034742326
-0.085985824 -0.016640775 -0.031961594
-0.085395344 -0.016357321 -0.031955518
-0.084804863 -0.016073864 -0.031949438
-0.084561184 -0.015115682 -0.032866485
-0.074698195 -0.024091614 -0.017777381
-0.076638669 -0.018958122 -0.024427244
-0.077953726 -0.015038316 -0.029415753
-0.079369031 -0.010946947 -0.034645438
-0.079834588 -0.0086712791 -0.037382152
-0.080180652 -0.0066311574 -0.039797448
-0.079712696 -0.0061317403 -0.040093005
-0.077370033 -0.0091522615 -0.03553772
-0.076203868 -0.0058234679 -0.038552597
-0.076561064 -0.0037957968 -0.040960241
-0.075977713 -0.003515762 -0.040954236
-0.074329451 -0.0051995586 -0.038231716
-0.058761343 -0.01848644 -0.015377636
-0.058028948 -0.018428003 -0.015049647
-0.056906782 -0.019064352 -0.013753619
-0.056041785 -0.019238103 -0.013100869
-0.055044472 -0.019644678 -0.012122817
-0.054307457 -0.019586481 -0.011792095
-0.053701423 -0.01929556 -0.011785858
-0.053358771 -0.018540112 -0.012428331
-0.052753251 -0.018249433 -0.012422099
-0.051353227 -0.019353209 -0.010466442
-0.031820454 0.031900849 -0.056043252
-0.031249285 0.032175038 -0.056037374
-0.030678116 0.032449223 -0.056031495
-0.029305398 0.03152835 -0.054290384
-0.098496623 -0.0149133 -0.039527349
-0.097912334 -0.014632815 -0.039521337
-0.09689036 -0.015242741 -0.038306154
-0.096305124 -0.014961801 -0.038300131
-0.095939845 -0.014235751 -0.038899191
-0.095355079 -0.013955038 -0.038893171
-0.085600413 -0.015940022 -0.031494152
-0.085355766 -0.014982003 -0.032411754
-0.085341722 -0.013578848 -0.033940163
-0.084753156 -0.013296313 -0.033934105
-0.075252146 -0.027342943 -0.013467949
-0.075258777 -0.025879038 -0.015073933
-0.074777685 -0.025355412 -0.015389362
-0.075635873 -0.022274058 -0.019222088
-0.076845773 -0.018536706 -0.023961324
-0.078159466 -0.014619654 -0.028952878
-0.079221316 -0.011198667 -0.033266492
-0.078985028 -0.010248752 -0.034179702
-0.078631885 -0.009522697 -0.03478526
-0.077931374 -0.0025778282 -0.042012013
-0.077349201 -0.0022983558 -0.042006023
-0.076767012 -0.0020188834 -0.042000029
-0.059920654 -0.01910216 -0.014274499
-0.059702557 -0.018118678 -0.015234199
-0.059099548 -0.017829208 -0.015227993
-0.05823854 -0.018001499 -0.014578101
-0.057116725 -0.018637134 -0.013281288
-0.056382116 -0.018578639 -0.012951739
-0.055646889 -0.018520096 -0.012621916
-0.055172581 -0.01799801 -0.01293929
-0.054567814 -0.017707694 -0.012933064
-0.053569067 -0.018112183 -0.011955211
-0.052963544 -0.017821504 -0.011948978
-0.052093804 -0.017994508 -0.011293627
-0.048394833 -0.01769946 -0.0096348217
-0.047921777 -0.017175751 -0.0099546425
-0.046776067 -0.017813735 -0.0086424574
-0.046032798 -0.017754549 -0.0083090253
-0.04373575 -0.016354246 -0.0086111641
-0.031447653 0.032578688 -0.055591095
-0.031540032 0.033844199 -0.057025854
-0.030969985 0.034117848 -0.057019986
-0.028663389 0.031808719 -0.053256556
-0.099283837 -0.014780862 -0.039076831
-0.098916747 -0.014056126 -0.039674297
-0.098332934 -0.013775866 -0.039668288
-0.097530961 -0.013939404 -0.03905879
-0.096946672 -0.013658918 -0.039052777
-0.096909441 -0.012271404 -0.040553689
-0.096326321 -0.011991482 -0.040547688
-0.095743209 -0.01171156 -0.040541686
-0.085805483 -0.015522724 -0.031032784
-0.085790507 -0.014116759 -0.032565862
-0.085546128 -0.013162905 -0.033480294
-0.085072577 -0.01265719 -0.033780575
-0.075939454 -0.028912157 -0.01106338
-0.075333424 -0.028621234 -0.011057143
-0.076193124 -0.025508199 -0.014930622
-0.076440133 -0.02358631 -0.01716977
-0.076444268 -0.022138055 -0.018759452
-0.076689333 -0.020235421 -0.020976448
-0.077292331 -0.017658938 -0.024124086
-0.078127988 -0.0146519 -0.027868491
-0.078010112 -0.013466669 -0.029104408
-0.078836843 -0.010499621 -0.032800186
-0.060130335 -0.018675478 -0.013802757
-0.059783615 -0.017923374 -0.014441146
-0.059051644 -0.017864704 -0.014112766
-0.057931188 -0.018500112 -0.012815177
-0.057326671 -0.018209919 -0.012808955
-0.056722157 -0.017919725 -0.012802732
-0.056247801 -0.017398326 -0.013119766
-0.055643536 -0.017108254 -0.013113547
-0.055039272 -0.016818181 -0.013107328
-0.05377936 -0.017684251 -0.011482089
-0.05317384 -0.017393574 -0.011475856
-0.052568313 -0.017102895 -0.011469624
-0.051565807 -0.01750713 -0.010488707
-0.050427642 -0.018144866 -0.009179065
-0.049820341 -0.017853336 -0.009172814
-0.049213044 -0.017561806 -0.0091665639
-0.048739642 -0.017038155 -0.0094865803
-0.048132598 -0.016746746 -0.009480332
-0.047525555 -0.016455337 -0.0094740838
-0.046514183 -0.016859774 -0.0084881885
-0.045771115 -0.016800215 -0.0081548337
-0.04516305 -0.016508317 -0.0081485752
-0.04455499 -0.01621642 -0.0081423167
-0.044082947 -0.015692674 -0.0084631657
-0.043611303 -0.015169366 -0.0087837446
-0.031738006 0.034247059 -0.05658045
-0.031300504 0.034718238 -0.056862209
-0.028862381 0.032213647 -0.052808866
-0.09920314 -0.016433084 -0.036201194
-0.099703334 -0.013923794 -0.03922414
-0.099227898 -0.013421843 -0.03951969
-0.098752856 -0.012920297 -0.039815001
-0.097733878 -0.013526478 -0.038602255
-0.097368039 -0.012802753 -0.039200105
-0.097002797 -0.012080193 -0.039796993
-0.096528836 -0.011579388 -0.040092077
-0.095836096 -0.011520123 -0.039784983
-0.086010553 -0.015105425 -0.030571416
-0.08599516 -0.013700309 -0.032105431
-0.085865229 -0.012523837 -0.03332695
-0.085391745 -0.012018586 -0.033627171
-0.084688574 -0.011958995 -0.033314839
-0.077730909 -0.023971342 -0.016392205
-0.077732377 -0.02252169 -0.017984154
-0.078093663 -0.020387011 -0.020521306
-0.077495381 -0.020099809 -0.020515146
-0.077497318 -0.018665891 -0.022090085
-0.077499256 -0.017237868 -0.023658548
-0.078333899 -0.014232896 -0.027405238
-0.078570679 -0.012375326 -0.029571336
-0.060083225 -0.018711723 -0.012684948
-0.059478965 -0.01842165 -0.012678729
-0.058616474 -0.018594796 -0.012025354
-0.058011711 -0.01830448 -0.012019129
-0.057406943 -0.018014167 -0.012012905
-0.057061918 -0.01726136 -0.012653851
-0.05658761 -0.016740452 -0.012970814
-0.056113705 -0.016219979 -0.013287514
-0.055249128 -0.016391141 -0.012635192
-0.054120917 -0.017024886 -0.011333509
-0.054040607 -0.015810996 -0.012622753
-0.052778609 -0.016674966 -0.010996503
-0.051908717 -0.016847009 -0.010340356
-0.050771601 -0.017483376 -0.0090310145
-0.050164558 -0.017191967 -0.0090247672
-0.049557514 -0.016900558 -0.009018518
-0.048950471 -0.016609147 -0.0090122698
-0.048343424 -0.01631774 -0.0090060225
-0.047736377 -0.016026331 -0.0089997742
-0.046725269 -0.016430229 -0.0080132829
-0.046117462 -0.016138455 -0.0080070263
-0.031498399 0.035120938 -0.056416985
-0.030928576 0.035394479 -0.056411117
-0.030624267 0.036061872 -0.056980185
-0.099406712 -0.016018823 -0.035743184
-0.10001416 -0.013289564 -0.039069716
-0.099538796 -0.01278807 -0.03936521
-0.099063821 -0.012286981 -0.039660469
-0.098372094 -0.012228002 -0.039353203
-0.097570799 -0.012390161 -0.038743943
-0.085408829 -0.016265767 -0.027942052
-0.08597023 -0.013731637 -0.031029342
-0.086069547 -0.012108062 -0.032867268
-0.085481226 -0.011825642 -0.032861214
-0.084892899 -0.011543221 -0.032855157
-0.080330119 -0.018932424 -0.022279149
-0.078899719 -0.020251403 -0.020060003
-0.079849377 -0.016991714 -0.024153624
-0.078897811 -0.017388834 -0.023205277
-0.077104889 -0.019389803 -0.020041531
-0.076506607 -0.019102601 -0.020035371
-0.077945918 -0.01494268 -0.025381844
-0.077590138 -0.014205644 -0.026000557
-0.076757699 -0.014372281 -0.025369614
-0.059431273 -0.018457714 -0.01155905
-0.058438621 -0.01886314 -0.010579473
-0.057833098 -0.018572463 -0.010573241
-0.057616975 -0.017586771 -0.011540376
-0.057271775 -0.016834322 -0.012181715
-0.05666751 -0.016544249 -0.012175496
-0.056323387 -0.015793296 -0.012815772
-0.055589363 -0.015733687 -0.012486443
-0.054854725 -0.01567403 -0.012156838
-0.054381344 -0.015153783 -0.012474009
-0.053383615 -0.015554569 -0.011496804
-0.052251339 -0.016187442 -0.01019213
-0.051513158 -0.016127802 -0.0098606013
-0.050907128 -0.01583688 -0.0098543642
-0.049768336 -0.016471552 -0.0085442085
-0.049161293 -0.016180143 -0.0085379602
-0.048554245 -0.015888736 -0.0085317129
-0.031391386 0.036190927 -0.056541167
-0.031351477 0.037249468 -0.057683166
-0.03065056 0.037326399 -0.057390686
-0.027271802 0.033450574 -0.051313199
-0.10032474 -0.012655845 -0.038915422
-0.099849448 -0.012154808 -0.039210852
-0.099482641 -0.01143364 -0.039807014
-0.098683216 -0.011594964 -0.039198853
-0.097882494 -0.011756548 -0.038589709
-0.084221639 -0.018570831 -0.023731533
-0.085369125 -0.014886634 -0.028404504
-0.085585289 -0.013031737 -0.03056247
-0.084995531 -0.012748627 -0.030556398
-0.084290199 -0.012689163 -0.030241929
-0.081834331 -0.016007353 -0.025267046
-0.08124046 -0.015722269 -0.025260933
-0.080410667 -0.01589022 -0.024629125
-0.079697967 -0.01583158 -0.024309775
-0.076241203 -0.016734116 -0.021454485
-0.076964028 -0.013952418 -0.024905413
-0.075047597 -0.016161134 -0.021442199
-0.065194681 -0.014876881 -0.017548511
-0.064469188 -0.014817288 -0.017223321
-0.059383504 -0.018493839 -0.010437501
-0.058778234 -0.018203281 -0.010431272
-0.058172964 -0.017912725 -0.010425041
-0.057827007 -0.017159376 -0.011067846
-0.05722224 -0.016869061 -0.011061622
-0.056877367 -0.01611721 -0.011703361
-0.056403141 -0.015596779 -0.01202072
-0.055799134 -0.015306828 -0.012014504
-0.055195123 -0.015016875 -0.012008286
-0.054591112 -0.014726924 -0.01200207
-0.05385606 -0.014666847 -0.011672263
-0.05272552 -0.015297712 -0.010368973
-0.051988151 -0.015237748 -0.010037795
-0.051250167 -0.015177734 -0.0097063407
-0.049979161 -0.016042547 -0.0080698989
-0.049372114 -0.015751138 -0.0080636498
-0.031680938 0.037846986 -0.057525564
-0.031244829 0.038315278 -0.057806063
-0.030676791 0.038587958 -0.057800222
-0.027706031 0.03532188 -0.052605346
-0.10063508 -0.012022635 -0.038761243
-0.10015985 -0.011522054 -0.039056621
-0.099684998 -0.011021876 -0.039351765
-0.098994076 -0.010962435 -0.039044626
-0.098519698 -0.010462482 -0.03933977
-0.082787082 -0.021359436 -0.018844474
-0.084066644 -0.017409403 -0.023888031
-0.084751666 -0.014634895 -0.027315348
-0.08450745 -0.013676129 -0.028240306
-0.084148079 -0.012943731 -0.028853664
-0.082859308 -0.01400745 -0.026986206
-0.081681602 -0.0148504 -0.025421966
-0.080852844 -0.015017497 -0.024790809
-0.080494843 -0.014280703 -0.025409753
-0.075851671 -0.01602586 -0.020982038
-0.06540297 -0.014453022 -0.017079892
-0.064677566 -0.014393255 -0.016754506
-0.062812872 -0.01639591 -0.0135416
-0.061444994 -0.017489532 -0.011598517
-0.060840983 -0.017199581 -0.011592301
-0.060236972 -0.016909629 -0.011586083
-0.05924657 -0.017312611 -0.010607767
-0.058383167 -0.017484974 -0.0099521177
-0.058037039 -0.016731981 -0.010595317
-0.057432275 -0.016441667 -0.010589092
-0.056827508 -0.016151352 -0.010582868
-0.056482963 -0.0154001 -0.011225007
-0.056008905 -0.014879967 -0.011542565
-0.05540489 -0.014590016 -0.011536349
-0.054800879 -0.014300063 -0.011530131
-0.054196868 -0.014010112 -0.011523915
-0.053592861 -0.013720159 -0.011517697
-0.05298885 -0.013430208 -0.01151148
-0.051592927 -0.014519139 -0.0095584411
-0.050456233 -0.015151075 -0.008248887
-0.031878293 0.03824858 -0.057081554
-0.031574074 0.038911909 -0.057648536
-0.03100626 0.039184481 -0.057642691
-0.029642401 0.038284898 -0.055915631
-0.027735898 0.036593266 -0.053022962
-0.026760565 0.036275409 -0.052146588
-0.10094516 -0.011389934 -0.038607191
-0.10036228 -0.011110124 -0.038601194
-0.099887341 -0.010610112 -0.03889652
-0.099196509 -0.010550505 -0.038589194
-0.098722056 -0.010050719 -0.038884524
-0.097813182 -0.01043115 -0.037973806
-0.082994945 -0.020936454 -0.018376822
-0.084039904 -0.017444059 -0.02279548
-0.084493592 -0.015118417 -0.025607144
-0.084249295 -0.014157493 -0.026535712
-0.084121577 -0.012974517 -0.027772291
-0.083064966 -0.013588958 -0.026523521
-0.082589529 -0.013079971 -0.026828479
-0.081763551 -0.013245213 -0.026200021
-0.081288457 -0.012736158 -0.026505236
-0.08010754 -0.013576506 -0.024940012
-0.077376686 -0.013112692 -0.023977008
-0.076782577 -0.012827492 -0.023970893
-0.064100668 -0.016778752 -0.01276091
-0.063877724 -0.015799796 -0.013720902
-0.063022114 -0.015970115 -0.013070837
-0.062037665 -0.016370917 -0.012096817
-0.061306633 -0.016311599 -0.011767462
-0.060574986 -0.016252233 -0.011437831
-0.059842732 -0.016192818 -0.011107927
-0.059109867 -0.016133353 -0.010777748
-0.058247071 -0.016304586 -0.010122788
-0.057642303 -0.016014272 -0.010116564
-0.05703754 -0.015723957 -0.010110339
-0.05669282 -0.014973061 -0.010752871
-0.056218669 -0.014453107 -0.011070626
-0.055614661 -0.014163154 -0.011064409
-0.05501065 -0.013873204 -0.011058193
-0.054406639 -0.013583251 -0.011051975
-0.053802632 -0.0132933 -0.01104576
-0.053461038 -0.012545364 -0.01168671
-0.05180322 -0.014091209 -0.0090853199
-0.051197696 -0.013800531 -0.0090790875
-0.030806804 0.039000522 -0.056338925
-0.029840065 0.038687121 -0.055470929
-0.029137727 0.038764704 -0.055177234
-0.02803367 0.038254395 -0.054017756
-0.101255 -0.010757742 -0.038453266
-0.10067235 -0.010478046 -0.038447268
-0.1000897 -0.010198349 -0.038441271
-0.099507049 -0.0099186515 -0.038435273
-0.098924398 -0.009638954 -0.038429275
-0.09801577 -0.01001889 -0.037518006
-0.083202802 -0.020513469 -0.017909171
-0.084246568 -0.017023506 -0.022330515
-0.084583431 -0.014925163 -0.02483164
-0.084338933 -0.013964083 -0.025761534
-0.083862789 -0.013454734 -0.026066931
-0.083270624 -0.013170468 -0.026060835
-0.083144493 -0.011989103 -0.027298192
-0.08255329 -0.0117053 -0.027292104
-0.081845239 -0.011645265 -0.026975533
-0.08137089 -0.011137692 -0.027279936
-0.080309786 -0.011749133 -0.02603036
-0.081475496 -0.0081244269 -0.030666567
-0.082049385 -0.005638585 -0.033724118
-0.081695043 -0.0049188943 -0.034327839
-0.081688479 -0.003545644 -0.035841908
-0.063453689 -0.016523769 -0.011637886
-0.062977515 -0.016004033 -0.011954744
-0.062374506 -0.015714563 -0.011948538
-0.061771505 -0.015425095 -0.011942332
-0.061040662 -0.01536541 -0.01161305
-0.060052503 -0.015765958 -0.010635989
-0.059448496 -0.015476004 -0.010629772
-0.058715463 -0.01541624 -0.010299394
-0.057852335 -0.015586878 -0.0096440343
-0.057247572 -0.015296564 -0.0096378094
-0.056642804 -0.015006249 -0.0096315853
-0.05642844 -0.014026246 -0.010598688
-0.055824429 -0.013736295 -0.010592471
-0.055220421 -0.013446342 -0.010586254
-0.054747082 -0.012927241 -0.010903947
-0.054274134 -0.01240857 -0.011221375
-0.05367063 -0.012118859 -0.011215163
-0.052013516 -0.013663279 -0.0086121988
-0.051407989 -0.013372601 -0.0086059654
-0.050802466 -0.013081921 -0.008599733
-0.050196942 -0.012791243 -0.0085935015
-0.049591418 -0.012500565 -0.0085872691
-0.048985895 -0.012209887 -0.0085810367
-0.031004237 0.039402276 -0.055894744
-0.030435752 0.039675172 -0.055888895
-0.029867271 0.039948072 -0.055883043
-0.028899424 0.039635785 -0.055014506
-0.027929295 0.03932276 -0.054143928
-0.026553325 0.038420316 -0.05240247
-0.10139618 -0.011949595 -0.036190264
-0.10156459 -0.010126059 -0.03829946
-0.10108954 -0.0096268421 -0.038594671
-0.10050737 -0.0093473699 -0.03858868
-0.099709406 -0.0095068887 -0.037980027
-0.099126756 -0.0092271911 -0.03797403
-0.098218367 -0.0096066287 -0.037062209
-0.083410673 -0.020090487 -0.017441517
-0.084569737 -0.016375775 -0.022180045
-0.084673345 -0.014731752 -0.024055498
-0.084544674 -0.013545421 -0.025298661
-0.08406844 -0.013036244 -0.025604244
-0.08394102 -0.011855097 -0.026842345
-0.083466001 -0.011347647 -0.027146677
-0.08310762 -0.010617443 -0.027760675
-0.08251714 -0.010333986 -0.027754597
-0.081926659 -0.01005053 -0.02774852
-0.081336185 -0.0097670732 -0.027742444
-0.081796251 -0.0074874028 -0.030514363
-0.08213722 -0.0054436852 -0.032960679
-0.081898458 -0.0045049679 -0.033870202
-0.081891477 -0.0031325524 -0.035385191
-0.063059933 -0.015807852 -0.011160327
-0.062583931 -0.015288415 -0.011477385
-0.061980922 -0.014998945 -0.011471178
-0.061250169 -0.014939082 -0.0111417
-0.060390592 -0.015109036 -0.010488134
-0.059658259 -0.015049145 -0.010157833
-0.059054252 -0.014759192 -0.010151617
-0.058321055 -0.01469913 -0.0098210396
-0.057457604 -0.014869168 -0.0091652805
-0.056852836 -0.014578854 -0.0091590555
-0.056508269 -0.013828912 -0.0098023806
-0.0560342 -0.013309434 -0.010120532
-0.055560526 -0.012790389 -0.010438419
-0.055217605 -0.012043184 -0.011079608
-0.05461435 -0.011753594 -0.011073399
-0.052829333 -0.013526027 -0.0081453091
-0.052223809 -0.013235348 -0.0081390776
-0.051618285 -0.012944669 -0.0081328452
-0.051012762 -0.012653992 -0.0081266128
-0.050407238 -0.012363314 -0.0081203794
-0.049801711 -0.012072635 -0.008114147
-0.049196191 -0.011781957 -0.0081079146
-0.029607542 0.037453029 -0.051985584
-0.030765574 0.040271737 -0.055731993
-0.030462228 0.040933475 -0.056300033
-0.029894413 0.041206054 -0.056294184
-0.029326597 0.04147863 -0.056288343
-0.029024614 0.042138908 -0.056855503
-0.10159902 -0.011536837 -0.035733916
-0.1016597 -0.0099342158 -0.037542772
-0.10161312 -0.0085580675 -0.039042499
-0.10113883 -0.0080602812 -0.039336938
-0.10023505 -0.0084373998 -0.038428955
-0.099653117 -0.0081580393 -0.038422965
-0.098963015 -0.008097521 -0.038115822
-0.098055162 -0.0084752906 -0.037204903
-0.083618537 -0.019667502 -0.016973866
-0.08477632 -0.015955394 -0.02171527
-0.084879428 -0.014312403 -0.023591865
-0.084750414 -0.013126758 -0.024835784
-0.084737539 -0.011721091 -0.026386499
-0.085300751 -0.0092095369 -0.029475091
-0.085057162 -0.0082624285 -0.030392546
-0.084238552 -0.0084226849 -0.029771062
-0.08295472 -0.0094714686 -0.027912684
-0.0827135 -0.0085221166 -0.028833909
-0.082472861 -0.007575077 -0.029752888
-0.082580484 -0.0059697512 -0.031590194
-0.082340889 -0.0050292569 -0.032502484
-0.081754461 -0.0047477493 -0.032496445
-0.063015312 -0.015841678 -0.010041248
-0.062666193 -0.015091934 -0.010682768
-0.062062934 -0.014802344 -0.010676559
-0.061459679 -0.014512754 -0.01067035
-0.060856424 -0.014223165 -0.010664141
-0.059996516 -0.014392523 -0.010010176
-0.059264019 -0.014332333 -0.0096796779
-0.058530916 -0.014272092 -0.0093489038
-0.057667635 -0.014441773 -0.0086927507
-0.056932945 -0.014381503 -0.0083611505
-0.056458104 -0.013861144 -0.0086803017
-0.056243967 -0.012882574 -0.0096485941
-0.055639956 -0.012592622 -0.0096423766
-0.055427112 -0.011616856 -0.01060826
-0.054823857 -0.011327267 -0.01060205
-0.053565603 -0.012180445 -0.0089742988
-0.031491142 0.041450419 -0.056435551
-0.031582825 0.042690203 -0.057859134
-0.031016562 0.042962033 -0.057853308
-0.030053848 0.042654507 -0.056990482
-0.029486921 0.042926654 -0.056984644
-0.028919995 0.043198805 -0.056978811
-0.10158689 -0.011566142 -0.034670301
-0.10186204 -0.009522452 -0.037087522
-0.10192195 -0.0079285325 -0.038888767
-0.10144772 -0.007431197 -0.039183147
-0.10086671 -0.0071522845 -0.039177168
-0.10028569 -0.0068733725 -0.039171189
-0.099489152 -0.0070305858 -0.038564224
-0.09858302 -0.0074066152 -0.037654944
-0.083943829 -0.019014936 -0.016824735
-0.084982909 -0.015535013 -0.021250496
-0.084969506 -0.014118661 -0.0228149
-0.085534066 -0.011587087 -0.025930652
-0.085979342 -0.0092979809 -0.028712576
-0.085849479 -0.0081291301 -0.029939104
-0.085376196 -0.0076258653 -0.030240577
-0.084788352 -0.0073436731 -0.030234525
-0.083738834 -0.0079454733 -0.028996855
-0.083265834 -0.0074416706 -0.029299079
-0.082793213 -0.0069382763 -0.029601054
-0.082204886 -0.0066558551 -0.029594999
-0.063352026 -0.015185 -0.0098937023
-0.062748522 -0.01489529 -0.0098874904
-0.062272441 -0.014376016 -0.01020521
-0.061669186 -0.014086427 -0.010199
-0.061193757 -0.013567707 -0.010516458
-0.060462672 -0.013507247 -0.010186583
-0.059602439 -0.013676009 -0.0095322207
-0.058740772 -0.013845053 -0.0088767679
-0.057877667 -0.014014378 -0.0082202218
-0.056668136 -0.013433749 -0.0082077719
-0.056063369 -0.013143434 -0.0082015479
-0.055849727 -0.012165761 -0.0091704382
-0.055376127 -0.011647192 -0.0094887204
-0.05477237 -0.011357361 -0.0094825057
-0.054037698 -0.011295906 -0.0091517875
-0.031779483 0.043090384 -0.057416692
-0.031213222 0.043362215 -0.057410862
-0.030646959 0.04363405 -0.057405032
-0.029948505 0.043713175 -0.057113588
-0.029116886 0.04359946 -0.056535847
-0.028417014 0.043678664 -0.056243718
-0.1020644 -0.0091106882 -0.036632273
-0.1021238 -0.0075177588 -0.038434617
-0.1016495 -0.0070205885 -0.03872918
-0.10106849 -0.0067416765 -0.038723197
-0.10048747 -0.006462764 -0.038717218
-0.099906467 -0.0061838515 -0.038711239
-0.098785207 -0.0069951825 -0.037200067
-0.097985864 -0.0071528098 -0.036590297
-0.097403213 -0.0068731126 -0.036584295
-0.096820563 -0.006593415 -0.036578301
-0.085086897 -0.016763659 -0.018897569
-0.085421696 -0.014661866 -0.021415081
-0.085175663 -0.013699141 -0.022351079
-0.086429268 -0.0098311054 -0.027330777
-0.086298525 -0.0086599635 -0.028561043
-0.086168207 -0.007492621 -0.029787319
-0.085694984 -0.0069898181 -0.03008873
-0.084992506 -0.0069282367 -0.029775217
-0.083596326 -0.008193735 -0.027609896
-0.083354525 -0.0072467113 -0.028530741
-0.082997538 -0.0065225023 -0.029141372
-0.082409211 -0.0062400815 -0.029135317
-0.080535948 -0.0083926069 -0.025724953
-0.063561618 -0.014758496 -0.009422156
-0.062958114 -0.014468785 -0.009415945
-0.062481947 -0.013949689 -0.0097338604
-0.062006179 -0.013431026 -0.010051511
-0.061403174 -0.013141556 -0.010045304
-0.060672179 -0.013080919 -0.009715233
-0.059812121 -0.013249326 -0.0090604778
-0.059079546 -0.013188659 -0.0087295836
-0.058346368 -0.013127942 -0.0083984137
-0.057612572 -0.013067174 -0.0080669662
-0.057137843 -0.012547798 -0.008385974
-0.055929318 -0.011967652 -0.0083735352
-0.055455487 -0.011448949 -0.0086922823
-0.05485148 -0.011158997 -0.0086860657
-0.054247469 -0.010869045 -0.0086798491
-0.053512271 -0.010807361 -0.0083486577
-0.031409882 0.043762401 -0.056968417
-0.031238683 0.044611298 -0.057818614
-0.030541277 0.044690713 -0.057527672
-0.029578758 0.044385452 -0.056665137
-0.028746849 0.044272263 -0.056087047
-0.027646935 0.043772779 -0.054933995
-0.10215975 -0.0089183599 -0.035874613
-0.1024323 -0.0068888925 -0.038281187
-0.10185128 -0.00660998 -0.038275208
-0.10127027 -0.006331068 -0.038269226
-0.10068925 -0.0060521555 -0.03826325
-0.10010824 -0.0057732435 -0.038257267
-0.098987393 -0.0065837493 -0.036745183
-0.098296762 -0.006522574 -0.036437239
-0.097823039 -0.0060248044 -0.036733195
-0.097567119 -0.0050921659 -0.037631616
-0.096985638 -0.0048130299 -0.037625629
-0.086122498 -0.016173368 -0.019070627
-0.086453632 -0.014075233 -0.021585511
-0.085975446 -0.013564588 -0.021893365
-0.086305849 -0.011482676 -0.024389794
-0.086977527 -0.0087481849 -0.027798157
-0.086731799 -0.0078012552 -0.028718023
-0.086372361 -0.007077184 -0.029328011
-0.085440323 -0.0074573923 -0.028397515
-0.0839279 -0.0089482507 -0.025915209
-0.083221272 -0.0088871662 -0.025598463
-0.082630552 -0.0086035943 -0.025592383
-0.082039833 -0.0083200214 -0.025586303
-0.081332155 -0.0082586566 -0.025269292
-0.080741189 -0.0079749692 -0.025263211
-0.063771211 -0.01433199 -0.0089506116
-0.063167706 -0.014042281 -0.0089443987
-0.062691458 -0.013523362 -0.0092625106
-0.0622156 -0.013004875 -0.0095803579
-0.061612595 -0.012715406 -0.0095741507
-0.060881685 -0.012654592 -0.0092438832
-0.059893329 -0.013051751 -0.0082638618
-0.059289318 -0.0127618 -0.0082576452
-0.05868531 -0.012471847 -0.0082514286
-0.058210526 -0.011953151 -0.0085700927
-0.057606768 -0.01166332 -0.0085638789
-0.055061243 -0.010732137 -0.0082141263
-0.054457236 -0.010442185 -0.0082079098
-0.053853225 -0.010152233 -0.0082016932
-0.03160654 0.044162583 -0.056525972
-0.031566516 0.045202911 -0.057661757
-0.031132663 0.045665961 -0.057940789
-0.030171962 0.045362201 -0.057079751
-0.02920901 0.045057729 -0.056216691
-0.028376814 0.044945065 -0.05563825
-0.028076043 0.045601599 -0.056205027
-0.10263408 -0.0064782845 -0.037827216
-0.10205307 -0.006199372 -0.037821241
-0.10147205 -0.0059204595 -0.037815258
-0.10089104 -0.005641547 -0.037809275
-0.10031003 -0.0053626345 -0.0378033
-0.099189579 -0.0061723166 -0.036290303
-0.098607406 -0.0058928444 -0.036284309
-0.09813375 -0.0053955279 -0.036580209
-0.098094299 -0.0040301252 -0.038080063
-0.09729632 -0.0041849958 -0.037472464
-0.087253749 -0.013940623 -0.02112761
-0.086775236 -0.013430034 -0.021435652
-0.087103017 -0.011348562 -0.023933575
-0.087771133 -0.0086146696 -0.027343977
-0.087524436 -0.0076679024 -0.028264398
-0.087392233 -0.0065031131 -0.029490162
-0.086804859 -0.0062211496 -0.029484116
-0.078585006 -0.017738523 -0.012169966
-0.081197441 -0.011314444 -0.020752048
-0.081894785 -0.0085695526 -0.024190642
-0.081771046 -0.0073971269 -0.025429534
-0.081297502 -0.0068921112 -0.025734069
-0.080355465 -0.0072736428 -0.024795385
-0.06290096 -0.013097035 -0.0087911617
-0.062297706 -0.012807445 -0.0087849526
-0.061694451 -0.012517855 -0.0087787425
-0.059627727 -0.012106131 -0.0081107793
-0.059023969 -0.0118163 -0.0081045656
-0.058420207 -0.011526468 -0.0080983518
-0.058074914 -0.010780316 -0.0087414887
-0.057471655 -0.010490726 -0.0087352786
-0.031803202 0.044562768 -0.056083526
-0.033200759 0.047701821 -0.060343042
-0.032376837 0.04759191 -0.059771404
-0.030763781 0.046336666 -0.057493389
-0.029670453 0.045841966 -0.05634613
-0.02897189 0.045921925 -0.056054387
-0.028538371 0.046385419 -0.056334481
-0.028105188 0.04684855 -0.056614354
-0.10283586 -0.0060676755 -0.037373248
-0.10236146 -0.0055712857 -0.037668116
-0.10188744 -0.0050752927 -0.037962753
-0.1011999 -0.0050136843 -0.037656162
-0.10061912 -0.004734884 -0.037650183
-0.099930793 -0.0046731145 -0.037343346
-0.099025935 -0.0050460044 -0.036433328
-0.098876774 -0.0038984818 -0.037632253
-0.098404154 -0.0034031591 -0.037926897
-0.097823605 -0.0031244701 -0.037920926
-0.096152909 -0.0050165979 -0.034897756
-0.087459989 -0.013520932 -0.020663597
-0.087900192 -0.011214447 -0.023477359
-0.088564746 -0.0084811542 -0.026889797
-0.088317081 -0.0075345491 -0.027810771
-0.088183597 -0.0063699763 -0.029037269
-0.087937094 -0.0054286155 -0.029953029
-0.087008856 -0.0058060493 -0.029025178
-0.078793645 -0.017313963 -0.011700572
-0.080341399 -0.012923115 -0.017444568
-0.08080966 -0.010609383 -0.020281732
-0.081976123 -0.0069798287 -0.024968166
-0.082665749 -0.0042709662 -0.028367039
-0.082077906 -0.003988774 -0.028360989
-0.034821097 0.05017947 -0.063001513
-0.032833308 0.048369918 -0.059897378
-0.03122293 0.047118075 -0.057621531
-0.030394897 0.047007374 -0.057045989
-0.029565573 0.046896495 -0.056469548
-0.029132329 0.047359064 -0.056749154
-0.028699422 0.047821272 -0.057028539
-0.028001571 0.04790188 -0.056737516
-0.10282479 -0.0060924413 -0.036316492
-0.10266962 -0.0049437024 -0.037515122
-0.10219567 -0.0044481591 -0.0378097
-0.10161535 -0.0041695819 -0.037803724
-0.10082082 -0.0043244399 -0.037196394
-0.10024004 -0.0040456392 -0.037190419
-0.099659264 -0.0037668385 -0.03718444
-0.099078484 -0.003488038 -0.037178464
-0.098497704 -0.0032092375 -0.037172485
-0.097700045 -0.0033634496 -0.036564164
-0.096355341 -0.0046046688 -0.034442324
-0.095223323 -0.0054154331 -0.032917678
-0.094197415 -0.0060102353 -0.03169233
-0.093723252 -0.0055104643 -0.031991515
-0.085493378 -0.020292658 -0.010977058
-0.084291369 -0.019715639 -0.010964685
-0.089017823 -0.0090132821 -0.025505772
-0.088769309 -0.0080648735 -0.026429556
-0.088634923 -0.0068980232 -0.027659789
-0.088727504 -0.0052956403 -0.029500689
-0.088254198 -0.0047947434 -0.029801605
-0.087554187 -0.0047323979 -0.029488612
-0.079365432 -0.019079441 -0.0089828139
-0.078883246 -0.018559292 -0.0093003819
-0.079361588 -0.016201584 -0.012196063
-0.080548503 -0.012501696 -0.016978648
-0.080662273 -0.010863164 -0.018871525
-0.081714146 -0.0074496754 -0.023260314
-0.083101258 -0.0034172053 -0.028523924
-0.082513891 -0.003135242 -0.028517878
-0.03642771 0.052636135 -0.065637469
-0.035997499 0.053090442 -0.065909885
-0.03181237 0.048088595 -0.058033735
-0.030854335 0.047788259 -0.057174481
-0.03015787 0.047868785 -0.056883741
-0.029856768 0.048520748 -0.057447564
-0.029292269 0.048791733 -0.057441752
-0.028595462 0.04887262 -0.057151228
-0.10302673 -0.0056815031 -0.035862155
-0.10287124 -0.0045334226 -0.037061516
-0.1023972 -0.0040380438 -0.037356272
-0.10181689 -0.0037594666 -0.037350304
-0.10102253 -0.0039139958 -0.036742605
-0.10044174 -0.0036351953 -0.03673663
-0.099860959 -0.0033563948 -0.036730651
-0.099280179 -0.0030775943 -0.036724675
-0.098483153 -0.0032317007 -0.036115993
-0.097793415 -0.0031692786 -0.035808291
-0.096557766 -0.0041927393 -0.033986893
-0.095426165 -0.0050026742 -0.032461334
-0.094400592 -0.00559681 -0.031235248
-0.09392634 -0.0050972062 -0.031534616
-0.092897095 -0.0056922147 -0.030305548
-0.089336164 -0.0083746016 -0.025355358
-0.088973887 -0.0076485933 -0.025969315
-0.089065775 -0.0060417871 -0.027817311
-0.08904428 -0.0046618218 -0.029349448
-0.089022867 -0.0032874276 -0.0308754
-0.08775793 -0.0043178019 -0.029030232
-0.079694666 -0.018422781 -0.0088360142
-0.079212531 -0.017903121 -0.0091535104
-0.080404282 -0.014180488 -0.013970719
-0.080755591 -0.012080279 -0.016512726
-0.08075083 -0.010667529 -0.018090706
-0.081802644 -0.0072537647 -0.02248575
-0.082145542 -0.0051991679 -0.024972126
-0.081555776 -0.004916057 -0.024966057
-0.032179896 0.047645174 -0.05674487
-0.031615179 0.04791626 -0.056739055
-0.031444207 0.048758 -0.057587203
-0.03101141 0.049218588 -0.057865612
-0.030841408 0.050057497 -0.058711134
-0.030015331 0.049949378 -0.058138005
-0.029319892 0.050030589 -0.0578482
-0.028094314 0.049352817 -0.056419071
-0.10333499 -0.0050531211 -0.035709701
-0.10307285 -0.0041231434 -0.03660791
-0.10259874 -0.0036279287 -0.036902852
-0.102125 -0.0031331105 -0.037197556
-0.10165165 -0.0026386881 -0.037492022
-0.1010718 -0.0023603337 -0.037486058
-0.10006267 -0.002945951 -0.036276862
-0.099481888 -0.0026671502 -0.036270887
-0.098685011 -0.0028209276 -0.035661839
-0.097452022 -0.0038431373 -0.03384082
-0.096650958 -0.0039983555 -0.033227861
-0.095519073 -0.0048082247 -0.031700153
-0.094493233 -0.0054022865 -0.030472346
-0.093907997 -0.0051213475 -0.030466322
-0.093322761 -0.0048404089 -0.030460296
-0.089427464 -0.0081797047 -0.024584165
-0.089291848 -0.0070112455 -0.025818896
-0.089043401 -0.0060668127 -0.026740799
-0.089247942 -0.0042473935 -0.028891254
-0.089338757 -0.0026559543 -0.030723972
-0.088075101 -0.0036843792 -0.028879182
-0.085888915 -0.0064810412 -0.024547745
-0.082859956 -0.010879054 -0.017960344
-0.082265116 -0.010593504 -0.017954221
-0.081552587 -0.010532644 -0.017631866
-0.081075437 -0.010022405 -0.017941976
-0.081657059 -0.0075023961 -0.021084007
-0.082000852 -0.0054444782 -0.02357799
-0.081410378 -0.0051610218 -0.02357191
-0.031600181 0.050185151 -0.058276888
-0.031036997 0.050455503 -0.058271095
-0.030473813 0.050725855 -0.058265299
-0.029910633 0.050996207 -0.058259502
-0.029083831 0.050888821 -0.05768602
-0.027725575 0.050023261 -0.055971846
-0.10385503 -0.0039915526 -0.036160279
-0.1033806 -0.0034963908 -0.0364554
-0.10301273 -0.00278561 -0.037050899
-0.10253921 -0.0022915241 -0.037345309
-0.10195959 -0.0020132808 -0.037339345
-0.10137998 -0.0017350377 -0.037333377
-0.10069333 -0.0016721918 -0.037027027
-0.10000613 -0.0016092956 -0.036720429
-0.099102803 -0.0019779059 -0.035811119
-0.097654365 -0.0034313735 -0.033385575
-0.096306287 -0.0046757855 -0.031249635
-0.095391922 -0.0050507854 -0.0303271
-0.094696477 -0.0049886946 -0.030015076
-0.094000481 -0.0049265539 -0.029702799
-0.093526013 -0.0044268165 -0.030003028
-0.092160232 -0.0056795911 -0.027847994
-0.090673938 -0.0071604345 -0.025370961
-0.089291677 -0.0084286565 -0.023189554
-0.089609556 -0.0063744145 -0.025668597
-0.089134365 -0.0058714538 -0.025972046
-0.088886313 -0.0049291723 -0.026893016
-0.089316711 -0.002678134 -0.02965459
-0.087597288 -0.0045845634 -0.026572159
-0.086093731 -0.0060642529 -0.024086941
-0.084580354 -0.0075536044 -0.021585494
-0.083523631 -0.008159684 -0.020325586
-0.082111776 -0.009439094 -0.018115392
-0.081634983 -0.0089299297 -0.018424921
-0.0818628 -0.0070837336 -0.020621134
-0.08208932 -0.0052480698 -0.022804815
-0.081498593 -0.0049644974 -0.022798736
-0.03136351 0.051042322 -0.05811473
-0.030669404 0.051123865 -0.05782526
-0.030237583 0.051582817 -0.05810314
-0.029806094 0.052041411 -0.058380809
-0.029243352 0.052311558 -0.05837502
-0.027356839 0.050693702 -0.055524621
-0.10405665 -0.0035812731 -0.035706669
-0.10379397 -0.0026541771 -0.036603805
-0.10332013 -0.002160144 -0.036898393
-0.10284667 -0.0016665058 -0.037192747
-0.10226729 -0.0013883738 -0.037186783
-0.10168789 -0.0011102416 -0.037180819
-0.1008947 -0.0012624046 -0.036573961
-0.1002076 -0.0011993444 -0.036267184
-0.099412262 -0.0013517615 -0.035658866
-0.097639099 -0.0034540878 -0.03232263
-0.096180081 -0.004918186 -0.029876038
-0.095595084 -0.0046373606 -0.029870017
-0.095010087 -0.0043565352 -0.029863995
-0.094314501 -0.0042941635 -0.029551782
-0.09395083 -0.0035767185 -0.030157898
-0.09236405 -0.0052648271 -0.02738943
-0.090878427 -0.0067443228 -0.024910906
-0.089496747 -0.0080113588 -0.022728188
-0.089813963 -0.0059584719 -0.025208728
-0.089338683 -0.0054556797 -0.025512366
-0.08875037 -0.0051732589 -0.02550631
-0.088389292 -0.0044513186 -0.026118901
-0.087573722 -0.0046084165 -0.025494199
-0.086413264 -0.0054267715 -0.023937102
-0.085708797 -0.0053643538 -0.023620067
-0.084194161 -0.0068514203 -0.021117099
-0.083136804 -0.0074563511 -0.019856423
-0.082427256 -0.0073944316 -0.019536033
-0.082185492 -0.0064429715 -0.020472039
-0.082294472 -0.0048306016 -0.022343261
-0.081703752 -0.0045470293 -0.022337181
-0.030433098 0.051980667 -0.057663277
-0.030001534 0.052439108 -0.057941113
-0.02943879 0.052709255 -0.057935324
-0.028876044 0.052979399 -0.057929527
-0.10399535 -0.0022443901 -0.036150742
-0.10352143 -0.0017505207 -0.03644551
-0.10304789 -0.0012570461 -0.036740046
-0.10246851 -0.00097891397 -0.036734082
-0.10178257 -0.00091579091 -0.036427617
-0.10098913 -0.0010678591 -0.03581991
-0.10019442 -0.0012201709 -0.035211235
-0.09918268 -0.0018046637 -0.03399694
-0.096968256 -0.0047855861 -0.029424973
-0.096383259 -0.0045047607 -0.029418953
-0.095798254 -0.0042239353 -0.029412931
-0.095213257 -0.0039431099 -0.029406911
-0.094738677 -0.0034441727 -0.029707016
-0.09448535 -0.0025105195 -0.030617906
-0.093125038 -0.0037553438 -0.028468965
-0.091195486 -0.0061076009 -0.024760976
-0.090606928 -0.0058250651 -0.024754919
-0.090131335 -0.0053223269 -0.025058739
-0.089543007 -0.0050399061 -0.025052685
-0.088954687 -0.0047574849 -0.02504663
-0.088366367 -0.0044750632 -0.025040573
-0.087550111 -0.0046323081 -0.024414489
-0.086846963 -0.0045696436 -0.024098033
-0.085913613 -0.0049475646 -0.023159264
-0.084515505 -0.0062115374 -0.020967981
-0.083691776 -0.0063710343 -0.02033525
-0.082983315 -0.0063087475 -0.020015448
-0.082974054 -0.0049175499 -0.021575354
-0.082499623 -0.0044131335 -0.021881709
-0.081908904 -0.0041295616 -0.021875627
-0.030196972 0.052836809 -0.057501417
-0.029634228 0.053106952 -0.057495624
-0.029071482 0.053377096 -0.057489835
-0.028112486 0.053083621 -0.056631949
-0.10430235 -0.0016191405 -0.035998598
-0.10372272 -0.0013408973 -0.03599263
-0.10324912 -0.00084758637 -0.036287345
-0.10256349 -0.00078441075 -0.035980698
-0.10198388 -0.00050616753 -0.03597473
-0.1009766 -0.0010885803 -0.034763604
-0.099966101 -0.001672862 -0.03354859
-0.099276684 -0.0016097893 -0.033239733
-0.097171418 -0.0043721613 -0.028967889
-0.096586421 -0.0040913359 -0.028961869
-0.096001416 -0.0038105103 -0.028955847
-0.095416419 -0.0035296846 -0.028949825
-0.095162176 -0.0025955518 -0.029862
-0.094908535 -0.0016636752 -0.030771969
-0.094324961 -0.0013835279 -0.030765962
-0.0915123 -0.0054713949 -0.024611169
-0.090923972 -0.0051889741 -0.024605114
-0.090335652 -0.0049065528 -0.024599059
-0.089973301 -0.0041848291 -0.025212383
-0.089159004 -0.0043417104 -0.024586946
-0.088570684 -0.0040592896 -0.024580892
-0.087640569 -0.0044361283 -0.023643855
-0.087051533 -0.0041533629 -0.023637792
-0.085888594 -0.0049717906 -0.022075016
-0.08506766 -0.0051299529 -0.021444473
-0.084361203 -0.005067287 -0.021125777
-0.083770245 -0.0047835992 -0.021119693
-0.083295502 -0.0042792372 -0.021426233
-0.082821138 -0.003775286 -0.021732522
-0.082114056 -0.0037120935 -0.021414071
-0.078332305 -0.0094410973 -0.012876561
-0.053722627 0.024783071 -0.03786803
-0.051376112 0.022187606 -0.033651255
-0.030392412 0.05323451 -0.057061721
-0.029961031 0.053692289 -0.057339683
-0.02926692 0.053774793 -0.057050135
-0.028704176 0.054044936 -0.057044342
-0.027347147 0.053188093 -0.055331342
-0.026250623 0.052705031 -0.05418295
-0.10450365 -0.0012095171 -0.035545714
-0.10392403 -0.00093127391 -0.03553975
-0.1033444 -0.00065303064 -0.035533782
-0.10122385 -0.0020364309 -0.032803182
-0.10064214 -0.0017571829 -0.032797195
-0.10006043 -0.0014779348 -0.032791205
-0.098938122 -0.0022807836 -0.031266309
-0.097374588 -0.0039587365 -0.028510805
-0.096789591 -0.0036779109 -0.028504783
-0.096204586 -0.0033970852 -0.028498761
-0.095619589 -0.0031162596 -0.028492741
-0.095034592 -0.0028354337 -0.028486719
-0.095221177 -0.0010346338 -0.030621007
-0.094637826 -0.00075459928 -0.030615004
-0.092946157 -0.0026463256 -0.027547659
-0.091128297 -0.0047732 -0.024145432
-0.090539977 -0.0044907788 -0.024139378
-0.090290211 -0.003550177 -0.025062576
-0.089702606 -0.0032680992 -0.025056528
-0.088775009 -0.0036435155 -0.02412121
-0.087845147 -0.0040198476 -0.023183612
-0.087141827 -0.0039569084 -0.02286653
-0.086323254 -0.0041139876 -0.022237657
-0.08550334 -0.0042713219 -0.021607762
-0.084913105 -0.003987981 -0.021601686
-0.084322862 -0.0037046399 -0.021595612
-0.083732627 -0.0034212989 -0.021589536
-0.083142385 -0.0031379578 -0.02158346
-0.082319215 -0.0032946253 -0.020952519
-0.079965681 -0.0063323732 -0.016227234
-0.076981992 -0.010537193 -0.0098377569
-0.054501053 0.024914032 -0.037422542
-0.053923283 0.025191389 -0.037416596
-0.052968398 0.024856331 -0.036511749
-0.051124029 0.023083121 -0.033493832
-0.050415866 0.023156038 -0.033185326
-0.031894006 0.055501536 -0.059451386
-0.030680535 0.054838303 -0.058033664
-0.029725272 0.054547101 -0.057178076
-0.02903134 0.054629907 -0.056888577
-0.028336868 0.054712776 -0.056598853
-0.027377017 0.054420859 -0.055739932
-0.026148614 0.053752162 -0.054307807
-0.09827175 -0.0036079593 -0.028366409
-0.097686991 -0.003327247 -0.028360391
-0.096992753 -0.0032644856 -0.028047699
-0.096407756 -0.00298366 -0.028041678
-0.095492408 -0.0033570633 -0.027114136
-0.094906703 -0.0030758975 -0.027108107
-0.095203929 -0.0010554452 -0.029554557
-0.09473031 -0.00055867468 -0.029854001
-0.093149573 -0.0022323993 -0.02709002
-0.091332622 -0.004357426 -0.023685751
-0.090744294 -0.0040750052 -0.023679696
-0.090494283 -0.0031349084 -0.024603453
-0.089906678 -0.0028528308 -0.024597405
-0.089319065 -0.002570753 -0.024591357
-0.088391006 -0.0029453207 -0.023655474
-0.087460682 -0.0033208013 -0.022717308
-0.086871639 -0.0030380359 -0.022711247
-0.086282596 -0.0027552706 -0.022705182
-0.085118085 -0.0035708528 -0.021140506
-0.084758796 -0.0028478671 -0.021758644
-0.084400095 -0.0021260569 -0.022375774
-0.083810814 -0.0018431765 -0.022369709
-0.082524367 -0.0028771572 -0.020490963
-0.081816882 -0.002813573 -0.020171877
-0.077550776 -0.0094359629 -0.010334329
-0.054701708 0.02532235 -0.036971103
-0.054123938 0.025599707 -0.036965158
-0.053169295 0.025265137 -0.036059767
-0.052212361 0.024929766 -0.035152216
-0.051759694 0.025412191 -0.035447028
-0.051054049 0.025485808 -0.035140291
-0.048943531 0.023300843 -0.031506114
-0.0336846 0.057113297 -0.061268274
-0.034156457 0.058856312 -0.063497826
-0.034753237 0.060771119 -0.065990455
-0.030967548 0.056435894 -0.059001852
-0.029358251 0.05521442 -0.056732934
-0.028664175 0.05529749 -0.056443259
-0.028101649 0.055567525 -0.056437474
-0.027274406 0.055463813 -0.055863243
-0.02591351 0.054609947 -0.054146815
-0.098474838 -0.0031947009 -0.02790951
-0.098868467 -0.0009607923 -0.030654088
-0.098068543 -0.0011136918 -0.030038564
-0.09726733 -0.0012668376 -0.029422047
-0.096025921 -0.0022894091 -0.027578572
-0.095661029 -0.0015738701 -0.028186033
-0.095076501 -0.0012932708 -0.028180016
-0.094491966 -0.0010126717 -0.028174
-0.093352988 -0.0018184731 -0.026632383
-0.091761455 -0.0035029033 -0.023846559
-0.09106116 -0.0034398823 -0.023530388
-0.090585761 -0.002938519 -0.023834458
-0.090110756 -0.0024375624 -0.024138283
-0.089523144 -0.0021554846 -0.024132235
-0.088935539 -0.001873407 -0.024126187
-0.088007003 -0.0022471256 -0.023189737
-0.087418675 -0.0019647044 -0.023183681
-0.086487167 -0.0023389896 -0.022244941
-0.085898124 -0.0020562243 -0.022238879
-0.085194021 -0.0019924873 -0.021921409
-0.084604748 -0.001709607 -0.021915346
-0.084015466 -0.0014267267 -0.021909282
-0.082729526 -0.002459689 -0.020029409
-0.082138799 -0.0021761172 -0.020023329
-0.08143115 -0.002112247 -0.019704051
-0.076798968 -0.0094025033 -0.0088951243
-0.055105582 0.024840878 -0.035625651
-0.055152036 0.026137922 -0.03711845
-0.054574721 0.026415056 -0.037112508
-0.053370193 0.025673943 -0.035607792
-0.052539676 0.025543416 -0.035000648
-0.051960751 0.025821324 -0.034994692
-0.051255189 0.025895104 -0.034687772
-0.049785089 0.024740409 -0.032568321
-0.033184167 0.051109001 -0.053209152
-0.03261945 0.05138009 -0.053203337
-0.034349941 0.059250034 -0.063062526
-0.035073705 0.061345678 -0.06583336
-0.034390856 0.061430007 -0.065550938
-0.032161742 0.059317969 -0.061928693
-0.02899123 0.055881746 -0.056287788
-0.028428921 0.056151677 -0.056282002
-0.027998636 0.056607973 -0.056560051
-0.027436547 0.056877799 -0.056554269
-0.025545204 0.055279609 -0.053700112
-0.1001924 0.00025002522 -0.031725269
-0.099610925 0.00052916125 -0.031719282
-0.098813191 0.00037776478 -0.031105848
-0.098014191 0.00022612503 -0.030491428
-0.097104825 -0.00014175306 -0.029570946
-0.096302837 -0.00029411633 -0.028954053
-0.0952795 -0.00088017917 -0.027723301
-0.094694972 -0.00059958 -0.027717283
-0.093556397 -0.001404547 -0.026174743
-0.092413217 -0.0022127726 -0.024625959
-0.091377765 -0.0028052744 -0.023381202
-0.091014855 -0.0020858382 -0.023995016
-0.090427481 -0.001803875 -0.02398897
-0.089840122 -0.0015219115 -0.023982923
-0.089139611 -0.0014581386 -0.023667065
-0.088552006 -0.0011760609 -0.023661016
-0.087964393 -0.00089398318 -0.023654968
-0.087262839 -0.00082992984 -0.023338847
-0.086560719 -0.00076582452 -0.023022469
-0.085398674 -0.0015760373 -0.021460982
-0.084694088 -0.001512079 -0.021143068
-0.083873175 -0.0016672318 -0.020512536
-0.083050936 -0.0018226373 -0.01988098
-0.082460456 -0.001539181 -0.019874902
-0.081986628 -0.0010365504 -0.020181701
-0.081979416 0.00033941391 -0.021736197
-0.056668736 0.023802212 -0.034288902
-0.056712128 0.025102876 -0.035786148
-0.056507155 0.025991645 -0.036679257
-0.05605422 0.02647211 -0.036972526
-0.055601642 0.026952196 -0.037265562
-0.054775223 0.026823049 -0.036661431
-0.053319659 0.025674637 -0.034554269
-0.052740734 0.025952548 -0.034548309
-0.052161809 0.026230458 -0.034542352
-0.05158288 0.026508367 -0.034536391
