# .PCD v0.7 - Point Cloud Data file format
VERSION 0.7
FIELDS x y z
SIZE 4 4 4
TYPE F F F
COUNT 1 1 1
WIDTH 1258
HEIGHT 1
VIEWPOINT 0 0 0 1 0 0 0
POINTS 1258
DATA ascii
-0.041294698 -0.0065580397 -0.21737319
-0.071340472 0.0054409965 -0.18848205
-0.071616352 0.0050091059 -0.18878739
-0.071275152 0.0036327941 -0.19042084
-0.071704082 0.0034389028 -0.19039282
-0.072218977 0.0016845311 -0.19196095
-0.071190052 -0.00071711728 -0.19504593
-0.071081899 -0.0017164592 -0.19615644
-0.071658805 -0.0016781808 -0.19580394
-0.085040241 -0.021984903 -0.2099386
-0.084907979 -0.02291348 -0.21098767
-0.085242316 -0.023205493 -0.21111412
-0.085109964 -0.024129592 -0.21215855
-0.085055575 -0.024945308 -0.21304664
-0.086322263 -0.023975186 -0.21133992
-0.086140543 -0.028630925 -0.21633925
-0.086162031 -0.029329842 -0.21706334
-0.086183466 -0.03002682 -0.21778543
-0.086435966 -0.030415341 -0.21805778
-0.086842544 -0.030599128 -0.21803121
-0.087171808 -0.030885044 -0.21815401
-0.087423556 -0.031272769 -0.21842591
-0.087829791 -0.031456403 -0.21839938
-0.088624269 -0.031130152 -0.21762598
-0.089342892 -0.030905318 -0.2170004
-0.08982832 -0.030987138 -0.21682383
-0.090392403 -0.030966671 -0.21649702
-0.090799995 -0.031150917 -0.21647039
-0.091207579 -0.031335164 -0.21644378
-0.09161517 -0.031519409 -0.21641715
-0.092101641 -0.03160147 -0.21624026
-0.09258838 -0.031683575 -0.21606328
-0.092758894 -0.032174174 -0.21648744
-0.09277118 -0.032867402 -0.21721053
-0.093020096 -0.033254456 -0.21748327
-0.093585007 -0.033235278 -0.21715736
-0.094229922 -0.033114433 -0.21668114
-0.094637178 -0.033298522 -0.21665452
-0.094805747 -0.033787098 -0.21707763
-0.095133081 -0.034072369 -0.21720077
-0.030177198 0.00012902869 -0.21566299
-0.030339343 -0.00050398323 -0.21624236
-0.030625504 -0.00091272546 -0.21651815
-0.031035949 -0.0010982609 -0.21649133
-0.03125919 -0.0016176715 -0.21691786
-0.031669289 -0.0018030512 -0.21689107
-0.032267276 -0.001654867 -0.21641089
-0.032614939 -0.0019516007 -0.2165353
-0.032711327 -0.0026918845 -0.21726337
-0.032870103 -0.0033196278 -0.21783902
-0.033091191 -0.0038357319 -0.21826322
-0.033562962 -0.003910346 -0.21808627
-0.033972032 -0.0040952601 -0.21805955
-0.034381099 -0.0042801746 -0.21803284
-0.034790169 -0.0044650887 -0.2180061
-0.035325889 -0.0044297334 -0.21767859
-0.035735186 -0.0046147509 -0.21765184
-0.036144484 -0.0047997683 -0.21762511
-0.036490098 -0.0050947974 -0.21774882
-0.036835518 -0.0053896611 -0.21787249
-0.037053168 -0.0059037469 -0.21829644
-0.037781678 -0.0055398392 -0.21751815
-0.038640972 -0.0049545066 -0.21643563
-0.039180193 -0.0049193357 -0.2161064
-0.039655253 -0.0049945037 -0.21592824
-0.040195499 -0.0049593258 -0.21559845
-0.040151704 -0.005916019 -0.21663058
-0.039978828 -0.0070877634 -0.21795933
-0.040387671 -0.0072725751 -0.21793261
-0.04060223 -0.0077848011 -0.21835628
-0.070629247 -0.0016598172 -0.19563165
-0.07052239 -0.0026558081 -0.19673936
-0.071478657 -0.002043782 -0.19557616
-0.084865063 -0.022340415 -0.20971709
-0.084888622 -0.023056822 -0.21045947
-0.085301027 -0.023243245 -0.21043253
-0.084470861 -0.025113141 -0.21285327
-0.084572062 -0.025717037 -0.21343498
-0.08475025 -0.02621538 -0.21386373
-0.085082673 -0.026504755 -0.21398863
-0.085537225 -0.02809706 -0.21542074
-0.085559577 -0.02879769 -0.21614711
-0.085813135 -0.029187974 -0.21642111
-0.085989244 -0.029680517 -0.21684486
-0.085856944 -0.030581549 -0.21786629
-0.086263515 -0.030765336 -0.21783972
-0.086747281 -0.030846981 -0.21766368
-0.087153971 -0.031030819 -0.21763711
-0.08740586 -0.031418677 -0.21790946
-0.087580115 -0.031907864 -0.21833067
-0.088218786 -0.031786148 -0.21785633
-0.089248165 -0.03115367 -0.21663196
-0.089733705 -0.031235583 -0.21645524
-0.090141185 -0.031419776 -0.21642862
-0.090627104 -0.031501789 -0.21625179
-0.091034696 -0.031686034 -0.21622516
-0.091442294 -0.031870279 -0.21619853
-0.091928706 -0.031952437 -0.2160216
-0.09225747 -0.032238774 -0.21614528
-0.092191666 -0.033033744 -0.21701887
-0.092440911 -0.033420708 -0.21729171
-0.092768706 -0.03370592 -0.21741474
-0.093254283 -0.033788383 -0.21723858
-0.093740121 -0.033870891 -0.21706232
-0.094226234 -0.033953447 -0.21688595
-0.094633147 -0.034137383 -0.21685937
-0.03000281 -0.00022488934 -0.21544248
-0.030040964 -0.0010805138 -0.21632484
-0.030389251 -0.0013774083 -0.21644926
-0.030612975 -0.0018964397 -0.2168757
-0.030898502 -0.0023037186 -0.21715067
-0.031121487 -0.0028212499 -0.21757594
-0.031530898 -0.003006319 -0.21754919
-0.032378197 -0.0024158629 -0.21646643
-0.03253752 -0.0030446162 -0.21704361
-0.032696493 -0.0036719656 -0.21761951
-0.032917723 -0.0041877753 -0.21804389
-0.033326678 -0.0043726377 -0.21801718
-0.033735637 -0.0045575011 -0.21799046
-0.03420759 -0.0046323156 -0.21781343
-0.034553546 -0.0049272263 -0.21793702
-0.035088986 -0.0048921383 -0.21760957
-0.035498168 -0.0050771045 -0.21758284
-0.035970874 -0.0051521063 -0.21740559
-0.036252934 -0.0055568875 -0.21767981
-0.036471073 -0.0060708341 -0.21810393
-0.036816113 -0.0063650976 -0.21822734
-0.037288528 -0.0064403536 -0.21805052
-0.037953269 -0.0061869007 -0.21742244
-0.038877122 -0.0054929135 -0.21618888
-0.03902914 -0.006118054 -0.21676621
-0.039697319 -0.0058636731 -0.21613529
-0.039719142 -0.0067077042 -0.21701427
-0.039934564 -0.0072211176 -0.21743929
-0.040214252 -0.00762452 -0.21771334
-0.040364318 -0.0082453713 -0.21828721
-0.040837459 -0.0083211092 -0.2181105
-0.041375801 -0.0082879514 -0.21778351
-0.041654456 -0.0086904233 -0.21805713
-0.041284204 -0.010175655 -0.21982552
-0.041626569 -0.010467635 -0.21994798
-0.041839145 -0.010974931 -0.22036809
-0.042245831 -0.011158769 -0.22034152
-0.078602083 -0.025806282 -0.21608052
-0.079010241 -0.025990786 -0.21605386
-0.080326885 -0.024925055 -0.21421488
-0.080736414 -0.025110174 -0.21418813
-0.081069767 -0.025399698 -0.21431288
-0.081250586 -0.025897473 -0.21474016
-0.080823496 -0.027223937 -0.2163718
-0.084689893 -0.022695929 -0.2094956
-0.085102871 -0.022882612 -0.20946863
-0.085071526 -0.024417156 -0.21110524
-0.084166691 -0.026382888 -0.21367073
-0.084499277 -0.026672216 -0.21379569
-0.084215298 -0.027791264 -0.21513079
-0.084162757 -0.028595651 -0.21600828
-0.084110379 -0.029397355 -0.21688282
-0.084824786 -0.029170346 -0.21625572
-0.085232489 -0.029354643 -0.21622908
-0.085640199 -0.029538941 -0.21620245
-0.08581645 -0.030031191 -0.21662638
-0.085838363 -0.030727196 -0.21734908
-0.086245164 -0.030911082 -0.21732251
-0.086651966 -0.031094972 -0.21729593
-0.086981468 -0.03138091 -0.217419
-0.087078929 -0.031972174 -0.21799016
-0.08733058 -0.032359082 -0.218262
-0.088046379 -0.032136045 -0.21763836
-0.088997409 -0.031606469 -0.21656355
-0.08948274 -0.031688485 -0.21638687
-0.089890108 -0.03187263 -0.21636026
-0.090375826 -0.031954743 -0.21618345
-0.090783305 -0.03213894 -0.21615683
-0.091269404 -0.03222115 -0.21597993
-0.091676995 -0.032405395 -0.21595331
-0.091612153 -0.033200093 -0.21682723
-0.091861717 -0.03358696 -0.21710016
-0.0922684 -0.033770796 -0.21707359
-0.092675097 -0.033954635 -0.21704702
-0.09308178 -0.034138475 -0.21702047
-0.093488462 -0.03432231 -0.2169939
-0.09389516 -0.03450615 -0.21696731
-0.029804874 -0.0015451497 -0.21625599
-0.030153131 -0.0018418311 -0.2163804
-0.030439073 -0.0022493685 -0.21665582
-0.030538416 -0.0029886167 -0.21738312
-0.030699482 -0.0036155041 -0.21795815
-0.030984243 -0.0040208036 -0.21823183
-0.031766653 -0.0035438244 -0.21730287
-0.032488994 -0.0031760079 -0.21652189
-0.032773472 -0.0035825721 -0.21679707
-0.032806866 -0.0044297138 -0.21767421
-0.033153214 -0.0047246809 -0.21779785
-0.033562172 -0.0049095438 -0.21777113
-0.034034073 -0.004984457 -0.21759404
-0.034443144 -0.0051693716 -0.21756731
-0.03485221 -0.0053542857 -0.21754059
-0.035261285 -0.0055392003 -0.21751387
-0.035670351 -0.0057241148 -0.21748714
-0.036079422 -0.0059090289 -0.21746042
-0.036297701 -0.0064226808 -0.2178847
-0.036642794 -0.006716846 -0.21800819
-0.037051406 -0.0069015548 -0.21798149
-0.0377157 -0.0066486867 -0.21735352
-0.038445745 -0.0062855142 -0.21657327
-0.038791005 -0.0065803747 -0.21669739
-0.039200529 -0.006765496 -0.21667063
-0.039351977 -0.0073883445 -0.21724662
-0.039761048 -0.0075732591 -0.21721989
-0.040040836 -0.0079764649 -0.21749407
-0.040191092 -0.0085969241 -0.21806818
-0.040664189 -0.0086727599 -0.21789142
-0.041072685 -0.008857416 -0.21786474
-0.041156884 -0.0095848022 -0.21858771
-0.041111507 -0.010526134 -0.21960716
-0.041259952 -0.011141184 -0.22017655
-0.041601945 -0.011432573 -0.22029877
-0.041943744 -0.011723801 -0.22042093
-0.042350207 -0.011907537 -0.22039437
-0.077163674 -0.026411271 -0.21681675
-0.077720866 -0.026388252 -0.21648985
-0.078278676 -0.026365211 -0.21616258
-0.078837112 -0.026342142 -0.21583495
-0.079471678 -0.026215164 -0.21535616
-0.080258936 -0.025879784 -0.2145742
-0.079834878 -0.027206305 -0.21620637
-0.07994055 -0.027803848 -0.21678047
-0.080347918 -0.027987992 -0.21675386
-0.084455825 -0.026110042 -0.21253845
-0.083633371 -0.027958304 -0.21493834
-0.083352275 -0.029071337 -0.21626724
-0.083377615 -0.029769059 -0.21699084
-0.083937638 -0.029747933 -0.2166644
-0.084344894 -0.029932026 -0.21663781
-0.085059553 -0.02970561 -0.21601042
-0.085236296 -0.030197721 -0.21643451
-0.085489675 -0.030586688 -0.21670797
-0.085665815 -0.031077383 -0.2171309
-0.086072616 -0.031261273 -0.21710433
-0.086479418 -0.031445161 -0.21707775
-0.086808957 -0.031731002 -0.21720086
-0.086983807 -0.032220203 -0.21762291
-0.087235585 -0.032607079 -0.21789503
-0.08810661 -0.032180715 -0.21697146
-0.088824667 -0.031957045 -0.21634513
-0.089231916 -0.032141142 -0.21631853
-0.089404993 -0.032630678 -0.2167419
-0.090046428 -0.032509327 -0.21626532
-0.090610467 -0.032489713 -0.2159383
-0.091017947 -0.032673903 -0.21591167
-0.091032647 -0.033366434 -0.21663556
-0.091282524 -0.033753216 -0.21690862
-0.091689214 -0.033937052 -0.21688205
-0.092095904 -0.034120891 -0.21685547
-0.092581421 -0.034203492 -0.21667911
-0.092909276 -0.034488562 -0.21680234
-0.093315966 -0.034672402 -0.21677577
-0.093722649 -0.034856237 -0.21674921
-0.029630827 -0.0018983746 -0.21603592
-0.029979132 -0.0021949573 -0.2161604
-0.030327242 -0.002491374 -0.21628481
-0.030364757 -0.0033410529 -0.21716353
-0.030402148 -0.0041878903 -0.21803932
-0.030810876 -0.0043726503 -0.21801262
-0.031219603 -0.0045574103 -0.21798591
-0.032189913 -0.0037500791 -0.21660408
-0.032725077 -0.0037142646 -0.21627523
-0.032821231 -0.0044514686 -0.21700305
-0.03304242 -0.0049667698 -0.21742809
-0.03345149 -0.0051516839 -0.21740137
-0.033923492 -0.0052266857 -0.21722412
-0.034269631 -0.0055215126 -0.21734792
-0.034678701 -0.0057064272 -0.2173212
-0.034961324 -0.0061106738 -0.21759531
-0.035496838 -0.0060762558 -0.21726775
-0.035842437 -0.0063707638 -0.21739149
-0.036251392 -0.0065556271 -0.21736477
-0.036533061 -0.0069592874 -0.21763879
-0.036878087 -0.0072533037 -0.21776235
-0.037542187 -0.0070008277 -0.21713412
-0.038722523 -0.0058689392 -0.21529464
-0.039132968 -0.006054475 -0.21526784
-0.03909127 -0.0070084925 -0.21630004
-0.039307334 -0.0075219409 -0.2167259
-0.039587531 -0.0079253996 -0.2170005
-0.04006125 -0.0080011757 -0.21682313
-0.040470432 -0.008186141 -0.21679641
-0.040879615 -0.0083711073 -0.21676968
-0.040899415 -0.0092090676 -0.21764563
-0.040983852 -0.0099359648 -0.21836893
-0.041197438 -0.010444831 -0.21879129
-0.04121663 -0.011276085 -0.21966048
-0.041494139 -0.011675113 -0.21993186
-0.041836064 -0.011966354 -0.22005415
-0.041724939 -0.013006827 -0.22121558
-0.042130612 -0.013190206 -0.22118907
-0.076990835 -0.02676204 -0.21659821
-0.077847667 -0.026324496 -0.21566938
-0.079706907 -0.026751472 -0.21511038
-0.079360388 -0.027970379 -0.2165886
-0.079767764 -0.028154524 -0.216562
-0.080175124 -0.028338667 -0.21653539
-0.083357982 -0.027711241 -0.21414103
-0.0827718 -0.02923796 -0.21607527
-0.082797945 -0.029935451 -0.21679914
-0.082976274 -0.030426553 -0.21722186
-0.083382957 -0.03061039 -0.2171953
-0.083942518 -0.030589748 -0.21686924
-0.084579401 -0.030466696 -0.21639276
-0.084756345 -0.030957628 -0.21681607
-0.085086465 -0.031243684 -0.2169393
-0.085493267 -0.03142757 -0.21691272
-0.085900061 -0.031611461 -0.21688613
-0.086306863 -0.031795349 -0.21685958
-0.086405098 -0.032386318 -0.21743152
-0.086811446 -0.032570001 -0.21740496
-0.0872951 -0.032652102 -0.2172289
-0.087934069 -0.032530904 -0.21675326
-0.088418566 -0.032613084 -0.21657681
-0.088747665 -0.032898683 -0.21670012
-0.089154467 -0.033082571 -0.21667354
-0.089639306 -0.033164904 -0.21649706
-0.090280928 -0.033043995 -0.2160203
-0.090453133 -0.033532783 -0.21644391
-0.090703331 -0.033919469 -0.21671705
-0.090874948 -0.034406848 -0.21713951
-0.091281295 -0.034590535 -0.21711296
-0.092002064 -0.034369789 -0.2164875
-0.092487693 -0.034452479 -0.21631099
-0.092815667 -0.034737568 -0.21643436
-0.093143463 -0.035022493 -0.21655765
-0.093629271 -0.035105344 -0.21638119
-0.029642569 -0.0019180698 -0.21536133
-0.029867107 -0.0024370831 -0.21578905
-0.030153291 -0.0028444014 -0.21606487
-0.030377088 -0.0033619131 -0.2164914
-0.03041449 -0.0042094244 -0.21736903
-0.030637506 -0.004724497 -0.21779341
-0.031046234 -0.0049092569 -0.2177667
-0.031704012 -0.004654095 -0.21713832
-0.032551177 -0.0040671937 -0.21605535
-0.032898374 -0.0043629212 -0.2161797
-0.032994255 -0.0050990144 -0.21690747
-0.033403553 -0.0052840319 -0.21688072
-0.033812851 -0.0054690493 -0.21685399
-0.034222148 -0.0056540673 -0.21682726
-0.034442108 -0.0061682188 -0.2172523
-0.034787908 -0.0064626187 -0.21737604
-0.035260018 -0.0065379445 -0.21719888
-0.035668973 -0.006722807 -0.21717216
-0.036141463 -0.0067982259 -0.2169949
-0.036486886 -0.0070925327 -0.21711873
-0.036895841 -0.0072773956 -0.21709201
-0.03736867 -0.0073529691 -0.21691471
-0.041011084 -0.0073354756 -0.21491364
-0.040706053 -0.0087233465 -0.21655022
-0.04092053 -0.0092347879 -0.21697539
-0.040681541 -0.010503405 -0.21844968
-0.041024551 -0.0107957 -0.21857268
-0.041302629 -0.011195661 -0.21884511
-0.041839734 -0.011164193 -0.21851942
-0.041728321 -0.012209041 -0.21968716
-0.042005394 -0.012607331 -0.21995838
-0.042476758 -0.012683921 -0.21978296
-0.079187602 -0.028321052 -0.21637012
-0.079218701 -0.029019428 -0.21709317
-0.079625502 -0.029203318 -0.2170666
-0.082191318 -0.029404582 -0.2158833
-0.082218267 -0.030101843 -0.21660742
-0.082397081 -0.030592807 -0.21703032
-0.082727671 -0.030878803 -0.21715342
-0.083210453 -0.030960482 -0.21697718
-0.083617143 -0.031144317 -0.21695061
-0.084176831 -0.031123972 -0.21662441
-0.084430516 -0.031511992 -0.21689747
-0.084837206 -0.031695832 -0.21687089
-0.085243888 -0.031879671 -0.21684434
-0.085727505 -0.031961646 -0.21666797
-0.086134315 -0.032145534 -0.21664138
-0.086386845 -0.032532882 -0.21691437
-0.086716235 -0.032818265 -0.21703745
-0.087122694 -0.033002 -0.21701092
-0.087761514 -0.032881092 -0.21653508
-0.088168316 -0.03306498 -0.21650851
-0.08857511 -0.033248868 -0.21648194
-0.088981919 -0.033432756 -0.21645536
-0.089466706 -0.033515185 -0.21627882
-0.089873619 -0.033699129 -0.21625224
-0.090124145 -0.034085721 -0.21652551
-0.090218127 -0.034673989 -0.21709767
-0.090546183 -0.034958538 -0.2172206
-0.091108933 -0.034940336 -0.21689501
-0.091829523 -0.034719978 -0.21626931
-0.092236318 -0.034903865 -0.21624275
-0.09256427 -0.035188746 -0.2163661
-0.092970952 -0.035372585 -0.21633954
-0.093456715 -0.035455532 -0.21616302
-0.029592309 -0.002049125 -0.21483749
-0.029755022 -0.0026793445 -0.21541747
-0.029917369 -0.0033081546 -0.21599616
-0.030203283 -0.0037146446 -0.21627162
-0.030364858 -0.0043412461 -0.21684837
-0.030464139 -0.0050763441 -0.21757419
-0.030872867 -0.0052611036 -0.21754749
-0.031281594 -0.0054458636 -0.21752079
-0.032126985 -0.0048611644 -0.21643977
-0.032724522 -0.0047157514 -0.21595989
-0.03307157 -0.0050112153 -0.21608424
-0.033292737 -0.0055264793 -0.2165104
-0.03370215 -0.0057115485 -0.21648365
-0.034111559 -0.0058966177 -0.21645691
-0.034394737 -0.0063010966 -0.21673174
-0.034677599 -0.0067051244 -0.21700625
-0.035213105 -0.0066710287 -0.21667826
-0.035622288 -0.0068559949 -0.21665153
-0.03603147 -0.0070409607 -0.21662481
-0.036313418 -0.0074445759 -0.21689938
-0.036786091 -0.007520196 -0.21672204
-0.037322924 -0.0074865455 -0.21639381
-0.041377895 -0.0076551302 -0.21436302
-0.041592587 -0.0081693288 -0.21479158
-0.041155953 -0.0097715445 -0.21672942
-0.04248203 -0.011883554 -0.21824758
-0.079315923 -0.028259497 -0.2155502
-0.07904616 -0.029369617 -0.216875
-0.079302609 -0.029758504 -0.21714784
-0.079709187 -0.029942289 -0.21712127
-0.081638597 -0.030268235 -0.2164157
-0.081742063 -0.030861223 -0.21698847
-0.081618242 -0.031758223 -0.21800762
-0.081872635 -0.032144822 -0.21827917
-0.082353979 -0.032226648 -0.21810368
-0.083063677 -0.032003649 -0.21748038
-0.083851323 -0.031678248 -0.21670592
-0.084105052 -0.032065745 -0.21697877
-0.084511511 -0.03224948 -0.21695222
-0.084917977 -0.032433216 -0.21692568
-0.085478075 -0.032413598 -0.21659964
-0.085807808 -0.032699089 -0.21672288
-0.086060382 -0.033085916 -0.21699564
-0.08646673 -0.033269599 -0.2169691
-0.086950287 -0.033351894 -0.21679291
-0.087434113 -0.033434238 -0.21661662
-0.087995768 -0.033415169 -0.21629032
-0.088402562 -0.033599056 -0.21626374
-0.088809364 -0.033782944 -0.21623719
-0.089216165 -0.033966832 -0.2162106
-0.089544952 -0.034251973 -0.21633396
-0.089717522 -0.034739077 -0.21675673
-0.089967787 -0.035124563 -0.21702933
-0.090373918 -0.035308145 -0.21700279
-0.091093287 -0.035088319 -0.21637756
-0.091578394 -0.035171162 -0.21620111
-0.091906436 -0.03545589 -0.21632445
-0.092313014 -0.035639673 -0.21629788
-0.092719585 -0.035823464 -0.21627133
-0.093284167 -0.035805717 -0.21594484
-0.029541995 -0.002180327 -0.21431309
-0.029704856 -0.0028107525 -0.21489398
-0.029743467 -0.0036610833 -0.21577626
-0.029967545 -0.0041777664 -0.21620293
-0.030253192 -0.0045834309 -0.21647805
-0.030476533 -0.0050986214 -0.21690352
-0.030699497 -0.0056129503 -0.21732828
-0.031108225 -0.0057977103 -0.21730158
-0.03170374 -0.0056533646 -0.21682335
-0.032362804 -0.0053988202 -0.21619338
-0.032897767 -0.0053639468 -0.21586446
-0.033307523 -0.005549171 -0.2158377
-0.033717278 -0.0057343957 -0.21581094
-0.03431648 -0.0055896332 -0.21533026
-0.034726579 -0.005775013 -0.21530347
-0.034693524 -0.0067287777 -0.21633473
-0.035102822 -0.0069137956 -0.216308
-0.035448726 -0.0072082337 -0.21643208
-0.035794437 -0.0075025088 -0.2165561
-0.036076438 -0.0079057533 -0.21683064
-0.036548909 -0.007981482 -0.21665333
-0.037021644 -0.0080572516 -0.21647593
-0.037622612 -0.0079146773 -0.21599661
-0.038546238 -0.0072241691 -0.21475916
-0.03947401 -0.0065305633 -0.21351616
-0.039885256 -0.0067164628 -0.21348929
-0.076319195 -0.029518319 -0.21783634
-0.076725207 -0.029701851 -0.21780981
-0.079142943 -0.028610561 -0.21533147
-0.079098947 -0.02941202 -0.21620691
-0.079280406 -0.029903695 -0.21663025
-0.081058919 -0.030434625 -0.216224
-0.081163034 -0.031027429 -0.21679698
-0.081418172 -0.031415183 -0.21706972
-0.081295043 -0.032310616 -0.21808815
-0.081700608 -0.032493941 -0.21806166
-0.082106173 -0.032677274 -0.21803516
-0.082891412 -0.032353256 -0.21726255
-0.083602481 -0.032130148 -0.2166376
-0.083703659 -0.032720421 -0.21720949
-0.084262617 -0.032700978 -0.2168839
-0.084745571 -0.032783117 -0.21670768
-0.08515203 -0.032966848 -0.21668112
-0.085635357 -0.033049084 -0.21650481
-0.08565747 -0.033739563 -0.21722627
-0.086217366 -0.033720687 -0.21690077
-0.086777881 -0.033701792 -0.21657491
-0.087261654 -0.033784229 -0.21639857
-0.087823212 -0.033765353 -0.21607214
-0.088230014 -0.033949241 -0.21604557
-0.088636808 -0.034133133 -0.216019
-0.088965759 -0.034418229 -0.21614242
-0.08921665 -0.034804206 -0.21641558
-0.089467265 -0.035189759 -0.21668845
-0.089717597 -0.035574887 -0.21696103
-0.090279728 -0.035557024 -0.21663538
-0.090920828 -0.035438314 -0.21615952
-0.091327399 -0.035622098 -0.21613295
-0.091576912 -0.036007304 -0.21640605
-0.091983259 -0.036190987 -0.21637951
-0.092547126 -0.036173459 -0.21605326
-0.029553685 -0.002200298 -0.21363573
-0.029654631 -0.0029423076 -0.21436991
-0.02963144 -0.0039034837 -0.21540502
-0.029731937 -0.0046406295 -0.21613427
-0.030141464 -0.0048257499 -0.2161075
-0.030488946 -0.0051209358 -0.21623172
-0.030712087 -0.0056356769 -0.2166574
-0.030996922 -0.0060399631 -0.21693188
-0.031530228 -0.0060055056 -0.21660395
-0.032001693 -0.0060807457 -0.21642648
-0.032661274 -0.0058266078 -0.21579589
-0.033133715 -0.0059019024 -0.21561795
-0.033669412 -0.0058672908 -0.21528855
-0.034205701 -0.0058326405 -0.21495877
-0.034615912 -0.0060180728 -0.21493198
-0.034962725 -0.0063134204 -0.21505672
-0.034929212 -0.0072661331 -0.21608847
-0.035275165 -0.0075604734 -0.21621263
-0.035494179 -0.0080728875 -0.21663807
-0.035712827 -0.0085844453 -0.21706282
-0.035994481 -0.0089865262 -0.2173367
-0.036529828 -0.0089537594 -0.21700945
-0.03744895 -0.0082671139 -0.21577702
-0.038114991 -0.0080152769 -0.21514535
-0.038524859 -0.0082005532 -0.21511857
-0.039257471 -0.0078388406 -0.21433368
-0.039927211 -0.0075858897 -0.21369879
-0.076146983 -0.029867828 -0.21761857
-0.076552995 -0.030051362 -0.21759206
-0.079346821 -0.028446024 -0.21435845
-0.079377778 -0.029145975 -0.2150861
-0.079333387 -0.029946541 -0.21596195
-0.080810644 -0.030887252 -0.21615578
-0.080839463 -0.031581298 -0.21687832
-0.081019126 -0.032070216 -0.21730028
-0.081123017 -0.032659736 -0.21787064
-0.081377551 -0.033045623 -0.21814211
-0.081934147 -0.033026394 -0.21781765
-0.082567245 -0.032905772 -0.21734355
-0.083125263 -0.032886446 -0.2170182
-0.083531395 -0.033070028 -0.21699166
-0.084166698 -0.032949276 -0.21651624
-0.084573157 -0.033133011 -0.21648969
-0.084902965 -0.033418145 -0.21661286
-0.085079245 -0.03390554 -0.21703504
-0.085485257 -0.034089074 -0.21700852
-0.085891269 -0.034272604 -0.21698199
-0.086682625 -0.033950437 -0.21620706
-0.087166511 -0.034032967 -0.21603057
-0.087650657 -0.034115542 -0.21585397
-0.088057466 -0.03429943 -0.21582739
-0.088386573 -0.034584481 -0.21595086
-0.088637777 -0.034970369 -0.21622413
-0.08881101 -0.035456609 -0.21664676
-0.089217134 -0.035640191 -0.21662022
-0.089623258 -0.035823774 -0.21659368
-0.090107419 -0.035906732 -0.21641749
-0.090591855 -0.035989735 -0.21624121
-0.090919897 -0.036273997 -0.21636443
-0.09124776 -0.036558107 -0.21648756
-0.091732368 -0.036641266 -0.21631134
-0.092374675 -0.036523454 -0.2158352
-0.029689735 -0.0019971826 -0.21265157
-0.029418387 -0.0034069426 -0.21430153
-0.029643174 -0.0039248513 -0.21473025
-0.02955823 -0.0049931635 -0.21591461
-0.029967757 -0.0051782848 -0.21588786
-0.030315287 -0.0054733721 -0.21601214
-0.030724699 -0.0056584417 -0.2159854
-0.030947642 -0.0061727325 -0.21641126
-0.031356711 -0.006357647 -0.21638454
-0.031765785 -0.0065425616 -0.21635783
-0.032362346 -0.0063987183 -0.2158784
-0.032959912 -0.0062546344 -0.21539818
-0.033432573 -0.0063300701 -0.21522008
-0.034094859 -0.0060757841 -0.21458708
-0.034505188 -0.0062612677 -0.21456027
-0.034852128 -0.0065566301 -0.21468517
-0.034945361 -0.0072902767 -0.21541561
-0.0351016 -0.0079127131 -0.21599317
-0.035194255 -0.0086426307 -0.21671997
-0.035413034 -0.0091534285 -0.21714441
-0.035631448 -0.0096633723 -0.21756814
-0.036039378 -0.0098477723 -0.21754149
-0.03765947 -0.0079641053 -0.21464923
-0.038069569 -0.008149486 -0.21462244
-0.038222492 -0.0087716579 -0.21520153
-0.038567815 -0.0090658246 -0.21532604
-0.039558537 -0.0082682697 -0.21393478
-0.076459609 -0.02880303 -0.21562925
-0.076271504 -0.029808192 -0.21680275
-0.079854153 -0.027866751 -0.21277581
-0.079808801 -0.028672582 -0.21365893
-0.080217533 -0.028857339 -0.21363223
-0.080638044 -0.031237535 -0.21593753
-0.080818124 -0.031727418 -0.21636085
-0.08092238 -0.032318134 -0.21693304
-0.081177376 -0.032704741 -0.21720541
-0.081356555 -0.033192188 -0.21762663
-0.081837758 -0.033274304 -0.21745096
-0.082395069 -0.03325519 -0.21712585
-0.083257571 -0.032830138 -0.2162015
-0.083587833 -0.033115435 -0.21632478
-0.083994284 -0.03329917 -0.21629824
-0.084324248 -0.033584259 -0.21642147
-0.084501013 -0.034071516 -0.21684381
-0.084907025 -0.034255046 -0.21681727
-0.085313044 -0.03443858 -0.21679075
-0.086180627 -0.03401538 -0.21586558
-0.086587317 -0.034199219 -0.21583901
-0.086994 -0.034383055 -0.21581244
-0.087323315 -0.034668002 -0.21593589
-0.087729894 -0.034851793 -0.21590932
-0.088058911 -0.035136528 -0.2160327
-0.088155128 -0.03572331 -0.21660508
-0.088561133 -0.035906836 -0.21657857
-0.089122638 -0.035889164 -0.2162527
-0.089528874 -0.036072798 -0.21622616
-0.089935109 -0.036256433 -0.21619964
-0.090263247 -0.036540546 -0.21632281
-0.090669371 -0.036724128 -0.21629629
-0.091075495 -0.03690771 -0.21626975
-0.091638543 -0.036890589 -0.21594363
-0.092359714 -0.036672395 -0.21531688
-0.029701576 -0.002017044 -0.21197127
-0.029616095 -0.0030947337 -0.21316746
-0.029592946 -0.0040569566 -0.21420637
-0.029755566 -0.0046845777 -0.21478674
-0.02979405 -0.0055308188 -0.21566822
-0.030141627 -0.0058258083 -0.21579255
-0.030551041 -0.0060108774 -0.2157658
-0.03089831 -0.0063056503 -0.21589009
-0.031245386 -0.0066002589 -0.2160143
-0.03165457 -0.0067852247 -0.21598756
-0.032126207 -0.0068607028 -0.21580988
-0.032723404 -0.0067170463 -0.21532972
-0.033258718 -0.0066828998 -0.21500024
-0.033668585 -0.0068681762 -0.21497346
-0.034267917 -0.0067243245 -0.21449195
-0.034551561 -0.0071291323 -0.21476842
-0.034771606 -0.0076429094 -0.21519591
-0.035054572 -0.0080466392 -0.21547161
-0.035020936 -0.00899438 -0.2165008
-0.035239857 -0.0095048826 -0.21692544
-0.035269015 -0.01033909 -0.2177992
-0.03567661 -0.010523335 -0.21777257
-0.037357416 -0.0085356617 -0.21473248
-0.037767284 -0.0087209381 -0.21470571
-0.037984576 -0.0092332372 -0.21513313
-0.038329873 -0.0095271934 -0.21525763
-0.038610689 -0.0099296467 -0.21553312
-0.03882692 -0.010440079 -0.21595915
-0.075953804 -0.028866671 -0.21528696
-0.076286823 -0.029153703 -0.21541077
-0.079680495 -0.028219188 -0.21255623
-0.079635426 -0.029024428 -0.21343973
-0.07974156 -0.029621279 -0.2140182
-0.08083266 -0.028877798 -0.21262793
-0.08124195 -0.029062817 -0.21260118
-0.081422575 -0.029557386 -0.21302979
-0.080616564 -0.031383667 -0.21541883
-0.080570184 -0.032179184 -0.21629266
-0.080750115 -0.032667741 -0.21671523
-0.081005201 -0.033054154 -0.2169877
-0.081335537 -0.033338916 -0.21711057
-0.081817009 -0.033421122 -0.21693468
-0.082147107 -0.033705778 -0.21705756
-0.08300896 -0.033281598 -0.21613334
-0.083415419 -0.033465333 -0.2161068
-0.083821885 -0.033649068 -0.21608023
-0.083999112 -0.034136407 -0.21650298
-0.084252402 -0.034522008 -0.21677557
-0.08481136 -0.034503572 -0.2164499
-0.085601442 -0.034181636 -0.21567403
-0.086008124 -0.034365475 -0.21564746
-0.086414807 -0.034549311 -0.21562089
-0.086744286 -0.034834214 -0.21574439
-0.087073579 -0.035118952 -0.2158678
-0.087402686 -0.035403538 -0.21599115
-0.087576896 -0.035889283 -0.21641386
-0.087982908 -0.036072817 -0.21638733
-0.088388927 -0.036256347 -0.21636081
-0.089028083 -0.036138278 -0.21588497
-0.089278735 -0.036522988 -0.21615806
-0.089684851 -0.036706571 -0.21613154
-0.090090983 -0.036890153 -0.216105
-0.090497106 -0.037073735 -0.21607846
-0.09090323 -0.037257317 -0.21605194
-0.091466188 -0.037240386 -0.21572569
-0.02977577 -0.0019251077 -0.21113624
-0.029565722 -0.003226707 -0.21264137
-0.029728783 -0.0038568429 -0.21322496
-0.029891478 -0.0044855666 -0.21380723
-0.029991779 -0.005223135 -0.21453993
-0.030029869 -0.0060684746 -0.21542183
-0.030377381 -0.0063633136 -0.21554624
-0.030786794 -0.0065483828 -0.21551949
-0.031133996 -0.0068430058 -0.21564382
-0.031543296 -0.0070280232 -0.21561709
-0.031952593 -0.0072130407 -0.21559034
-0.032424442 -0.0072886599 -0.2154125
-0.03295929 -0.007254852 -0.21508326
-0.033431813 -0.0073305457 -0.21490511
-0.033778571 -0.0076251975 -0.21502975
-0.034188211 -0.0078103701 -0.21500297
-0.034471504 -0.0082140062 -0.21527876
-0.034880914 -0.0083990758 -0.21525201
-0.034847613 -0.0093461284 -0.21628167
-0.03512983 -0.0097478982 -0.21655606
-0.035159178 -0.010581931 -0.21743067
-0.035062563 -0.01162836 -0.21860114
-0.035469361 -0.011812249 -0.21857457
-0.037337389 -0.0095094908 -0.21509154
-0.037618764 -0.0099119535 -0.21536712
-0.037707914 -0.010639086 -0.21609481
-0.037669174 -0.011579936 -0.2171208
-0.037949272 -0.011979683 -0.2173942
-0.039062344 -0.010976835 -0.21571316
-0.045144238 -0.01040799 -0.21177232
-0.044958062 -0.011573337 -0.2131189
-0.075706668 -0.029320234 -0.2152189
-0.076114029 -0.029504377 -0.21519229
-0.079506837 -0.028571624 -0.21233666
-0.079160109 -0.029788179 -0.21382588
-0.079116039 -0.030588564 -0.2147048
-0.079976656 -0.030157287 -0.21377254
-0.080840155 -0.029724566 -0.21283716
-0.081477635 -0.029600171 -0.21235491
-0.080746397 -0.031325549 -0.2145983
-0.080397777 -0.032529078 -0.21607466
-0.080351844 -0.033321373 -0.21694598
-0.080757633 -0.033504803 -0.21691945
-0.081163414 -0.033688232 -0.21689294
-0.081644833 -0.033770531 -0.21671697
-0.081974991 -0.034055095 -0.21683992
-0.082760483 -0.033732805 -0.21606523
-0.0830907 -0.034017697 -0.21618849
-0.083496936 -0.034201328 -0.21616195
-0.083826847 -0.034486011 -0.21628515
-0.084309399 -0.034568597 -0.21610887
-0.085099004 -0.034246661 -0.2153323
-0.085505806 -0.034430549 -0.21530575
-0.085912608 -0.03461444 -0.21527916
-0.086088248 -0.03510138 -0.21570291
-0.086494707 -0.035285115 -0.21567637
-0.086823978 -0.035569653 -0.21579976
-0.087075844 -0.035954677 -0.2160729
-0.087404676 -0.036238793 -0.21619609
-0.087810695 -0.036422323 -0.21616957
-0.088216707 -0.036605857 -0.21614306
-0.088700339 -0.036689006 -0.21596678
-0.089028724 -0.036972925 -0.21608999
-0.089356937 -0.03725668 -0.21621315
-0.089840755 -0.037339989 -0.21603696
-0.090324841 -0.037423339 -0.21586065
-0.090887472 -0.0374065 -0.2155343
-0.091293827 -0.037590187 -0.21550775
-0.029787708 -0.0019449475 -0.2104533
-0.029577449 -0.0032475882 -0.21196164
-0.029740633 -0.0038782312 -0.21254648
-0.030089982 -0.0041751731 -0.21267232
-0.030190174 -0.0049144165 -0.21340784
-0.030227995 -0.0057616923 -0.21429312
-0.030265687 -0.0066061299 -0.21517543
-0.030613134 -0.006900819 -0.21529989
-0.030960387 -0.0071953433 -0.2154243
-0.031307444 -0.0074897036 -0.21554865
-0.03171663 -0.0076746698 -0.21552192
-0.032125812 -0.0078596352 -0.21549518
-0.032660194 -0.0078261653 -0.21516617
-0.03294418 -0.0082295677 -0.21544172
-0.033353362 -0.0084145339 -0.21541499
-0.033762548 -0.0085994992 -0.21538825
-0.03417173 -0.0087844655 -0.21536152
-0.034328658 -0.0094045429 -0.21593849
-0.034674294 -0.0096978769 -0.21606252
-0.034893505 -0.010207794 -0.2164875
-0.034923241 -0.011040828 -0.21736199
-0.034890007 -0.011978549 -0.21838297
-0.03473153 -0.013126444 -0.21969742
-0.034949176 -0.013629992 -0.22011645
-0.036047235 -0.012637462 -0.21845257
-0.036961202 -0.011962059 -0.21722884
-0.037177958 -0.012468815 -0.2176518
-0.03733081 -0.01308188 -0.21822351
-0.037992463 -0.012837001 -0.21759859
-0.044491768 -0.010685308 -0.21173146
-0.044704262 -0.011197967 -0.21216308
-0.044783916 -0.01192676 -0.2128987
-0.074682556 -0.030102037 -0.21592857
-0.074351475 -0.031306289 -0.21739799
-0.074757032 -0.031489618 -0.21737151
-0.075162597 -0.031672947 -0.217345
-0.075494267 -0.031957854 -0.21746768
-0.078127965 -0.030570941 -0.21453945
-0.07831043 -0.031062195 -0.21496466
-0.077670462 -0.032671541 -0.21703675
-0.078076139 -0.032854918 -0.21701026
-0.079984859 -0.031000867 -0.2139803
-0.081075646 -0.030261472 -0.21259111
-0.079818912 -0.032695241 -0.21588323
-0.079773933 -0.033487257 -0.21675484
-0.080104515 -0.03377182 -0.21687773
-0.080510192 -0.033955202 -0.21685125
-0.080689825 -0.034441341 -0.21727252
-0.081397079 -0.034220982 -0.2166488
-0.081802875 -0.034404412 -0.21662228
-0.082436211 -0.034284867 -0.21614695
-0.082842335 -0.034468453 -0.21612041
-0.083400816 -0.034449972 -0.21579421
-0.083807178 -0.034633659 -0.21576765
-0.084519655 -0.034412965 -0.2151407
-0.084926456 -0.034596853 -0.21511413
-0.08533325 -0.034780737 -0.21508755
-0.085509375 -0.035267539 -0.21551147
-0.085838921 -0.035552084 -0.21563491
-0.086245269 -0.035735767 -0.21560837
-0.086497448 -0.036120698 -0.21588162
-0.08690358 -0.036304284 -0.21585509
-0.087309711 -0.036487866 -0.21582855
-0.087715827 -0.036671448 -0.21580201
-0.088044487 -0.036955368 -0.21592529
-0.088450499 -0.037138902 -0.21589877
-0.088623695 -0.037622802 -0.21632119
-0.089029364 -0.037806183 -0.21629469
-0.089668535 -0.037689496 -0.21581919
-0.090074547 -0.037873026 -0.21579267
-0.090480559 -0.03805656 -0.21576615
-0.030049799 -0.0015161501 -0.20915142
-0.029526984 -0.0033798327 -0.21143414
-0.029876981 -0.0036774161 -0.21156052
-0.030102143 -0.0041968417 -0.21199299
-0.030451586 -0.004493861 -0.21211906
-0.030426787 -0.0054538795 -0.21316062
-0.030215917 -0.0067394385 -0.21465297
-0.030439474 -0.0072532552 -0.21508032
-0.030786775 -0.0075476812 -0.21520479
-0.031071728 -0.0079511264 -0.21548024
-0.031356361 -0.0083541209 -0.21575539
-0.031765204 -0.0085389325 -0.21572867
-0.032174047 -0.0087237442 -0.21570197
-0.032645427 -0.0087997001 -0.21552433
-0.033054382 -0.0089845629 -0.21549761
-0.033337835 -0.0093868691 -0.21577267
-0.033746563 -0.0095716296 -0.21574599
-0.034092363 -0.009864918 -0.21587005
-0.034437966 -0.010158041 -0.21599406
-0.034657314 -0.010667432 -0.216419
-0.034687433 -0.011499469 -0.21729334
-0.034717456 -0.012328736 -0.21816479
-0.034559406 -0.013475761 -0.21947978
-0.034777198 -0.01397902 -0.219899
-0.034994628 -0.014481443 -0.22031751
-0.035839729 -0.013919427 -0.2192515
-0.036688108 -0.013355228 -0.21818133
-0.036904614 -0.013859702 -0.21860255
-0.03756506 -0.013615957 -0.21797875
-0.043905754 -0.01085352 -0.21153766
-0.044317234 -0.011039524 -0.21151078
-0.044728715 -0.011225528 -0.21148388
-0.044941004 -0.011737732 -0.21191572
-0.074103363 -0.030268291 -0.21573703
-0.074215099 -0.030860789 -0.21631005
-0.074179441 -0.031655412 -0.21718048
-0.074585006 -0.031838741 -0.217154
-0.074990571 -0.032022066 -0.21712749
-0.075322285 -0.03230688 -0.21725023
-0.075727738 -0.032490157 -0.21722373
-0.076133192 -0.032673441 -0.21719725
-0.076538645 -0.032856718 -0.21717076
-0.07679563 -0.033242386 -0.21744254
-0.076755799 -0.034031093 -0.21830893
-0.077012107 -0.034415267 -0.21857947
-0.077787936 -0.034094632 -0.21780996
-0.078491196 -0.033874132 -0.21718752
-0.078896537 -0.034057356 -0.21716104
-0.079301879 -0.034240585 -0.21713457
-0.079782248 -0.034322944 -0.21695887
-0.080112554 -0.034607045 -0.21708161
-0.080517888 -0.03479027 -0.21705511
-0.080923229 -0.034973498 -0.21702865
-0.081630744 -0.034753729 -0.21640465
-0.082263947 -0.034634471 -0.21592912
-0.082746074 -0.034717102 -0.21575274
-0.083228461 -0.034799773 -0.21557626
-0.083787479 -0.034781471 -0.21524957
-0.084270552 -0.034864232 -0.21507281
-0.084753908 -0.034947038 -0.21489595
-0.084853858 -0.035534516 -0.21547008
-0.085260205 -0.035718199 -0.21544352
-0.08566656 -0.035901882 -0.21541698
-0.085919067 -0.036286719 -0.21569034
-0.086325191 -0.036470305 -0.21566381
-0.086731315 -0.036653887 -0.21563727
-0.087137446 -0.03683747 -0.21561073
-0.087543562 -0.037021052 -0.2155842
-0.087717563 -0.037505187 -0.21600701
-0.088045947 -0.037788641 -0.21613011
-0.088451624 -0.037972018 -0.21610361
-0.088857293 -0.038155399 -0.2160771
-0.089340709 -0.038238909 -0.21590097
-0.089824393 -0.038322467 -0.21572474
-0.090308338 -0.03840607 -0.21554838
-0.029600961 -0.0032894565 -0.21059874
-0.029764395 -0.0039211158 -0.21118608
-0.030114325 -0.0042185467 -0.21131252
-0.030339288 -0.0047375164 -0.2117452
-0.030439215 -0.005476593 -0.21248265
-0.030352322 -0.0065435246 -0.21367437
-0.030327799 -0.0074963202 -0.2147094
-0.030489145 -0.0081183529 -0.21528757
-0.030774103 -0.0085212551 -0.21556282
-0.031058744 -0.0089237075 -0.21583776
-0.031467356 -0.0091084167 -0.21581106
-0.031875972 -0.009293125 -0.21578437
-0.032284584 -0.0094778324 -0.21575767
-0.032568227 -0.0098795285 -0.21603237
-0.032976612 -0.010064134 -0.21600568
-0.033384997 -0.01024874 -0.21597901
-0.033793386 -0.010433346 -0.21595232
-0.034138881 -0.010726148 -0.21607624
-0.034484189 -0.011018789 -0.21620007
-0.034514599 -0.011850241 -0.2170748
-0.034482166 -0.012786131 -0.21809605
-0.03444986 -0.013718395 -0.21911334
-0.03473042 -0.014115078 -0.21938436
-0.034822796 -0.01483018 -0.22010025
-0.035165243 -0.015119425 -0.22022201
-0.036073461 -0.014452321 -0.21900728
-0.036479358 -0.014635802 -0.21898076
-0.037646975 -0.013538154 -0.21716174
-0.043187931 -0.011239479 -0.21164979
-0.043599177 -0.011425378 -0.21162292
-0.044076547 -0.01150254 -0.21144311
-0.044554178 -0.011579744 -0.21126319
-0.045032077 -0.011656991 -0.21108319
-0.07393086 -0.030618381 -0.21551891
-0.074116409 -0.031108508 -0.21594234
-0.074449018 -0.031394124 -0.21606565
-0.074412979 -0.032187864 -0.21693648
-0.074818544 -0.032371193 -0.21690997
-0.075150304 -0.032655906 -0.21703276
-0.075555764 -0.032839183 -0.21700628
-0.07596121 -0.033022463 -0.2169798
-0.076366663 -0.03320574 -0.21695331
-0.076623745 -0.033591222 -0.21722521
-0.076584205 -0.034379352 -0.21809195
-0.076840609 -0.034763332 -0.21836263
-0.077616185 -0.034443177 -0.21759281
-0.078095563 -0.034525502 -0.21741742
-0.078500561 -0.034708574 -0.21739095
-0.078905568 -0.03489165 -0.2173645
-0.079460345 -0.034873463 -0.21703988
-0.07986556 -0.035056636 -0.21701342
-0.080345966 -0.035139203 -0.21683772
-0.080826625 -0.035221808 -0.21666194
-0.081534222 -0.03500225 -0.21603736
-0.082091682 -0.034984082 -0.21571131
-0.082573764 -0.035066802 -0.21553487
-0.082979992 -0.03525044 -0.21550831
-0.083462447 -0.035333261 -0.21533178
-0.084021591 -0.035315253 -0.21500497
-0.084275156 -0.03570063 -0.21527869
-0.084604941 -0.035984974 -0.21540216
-0.084934555 -0.036269162 -0.21552557
-0.085340679 -0.036452744 -0.21549906
-0.085593224 -0.036837064 -0.2157722
-0.085999124 -0.037020545 -0.21574569
-0.086482018 -0.037103791 -0.21556935
-0.086965173 -0.037187077 -0.21539292
-0.087139651 -0.037671074 -0.21581587
-0.087468192 -0.037954479 -0.21593904
-0.087873869 -0.038137861 -0.21591254
-0.088279545 -0.038321238 -0.21588603
-0.088685222 -0.038504619 -0.21585953
-0.089090899 -0.038688 -0.21583304
-0.089496575 -0.038871381 -0.21580653
-0.089902245 -0.039054759 -0.21578003
-0.029987421 -0.0026400948 -0.20898959
-0.029838638 -0.0038313484 -0.21035041
-0.029939495 -0.0045733601 -0.21109146
-0.029915672 -0.0055342987 -0.21213619
-0.030264776 -0.0058306102 -0.21226208
-0.030489108 -0.0063470621 -0.21269301
-0.030464282 -0.0073015741 -0.21373141
-0.03031563 -0.0084704943 -0.21506818
-0.03053873 -0.0089820055 -0.21549445
-0.030885424 -0.0092754578 -0.21561861
-0.031294037 -0.0094601652 -0.21559192
-0.031640422 -0.0097534023 -0.215716
-0.031986617 -0.010046477 -0.21584001
-0.032207951 -0.010555818 -0.21626495
-0.032553602 -0.010848342 -0.21638867
-0.032961532 -0.011032742 -0.21636201
-0.033494744 -0.011001142 -0.2160345
-0.033902902 -0.011185644 -0.21600783
-0.033996992 -0.011909189 -0.2167328
-0.034278974 -0.01230853 -0.21700625
-0.034309663 -0.013136221 -0.21787792
-0.034277692 -0.014067807 -0.21889564
-0.034558345 -0.014464297 -0.21916679
-0.034588449 -0.015284989 -0.22003126
-0.034805797 -0.015785778 -0.22044922
-0.034773026 -0.01670764 -0.22145694
-0.03505202 -0.017100712 -0.2217253
-0.037219957 -0.014316333 -0.21754239
-0.04342474 -0.011779395 -0.21140236
-0.04383599 -0.011965295 -0.2113755
-0.044379644 -0.011933959 -0.21104251
-0.044857495 -0.012011306 -0.21086244
-0.073979378 -0.030661814 -0.21484987
-0.074017674 -0.031356364 -0.21557443
-0.074350402 -0.031641994 -0.21569785
-0.074388124 -0.032334033 -0.21642004
-0.074646518 -0.032720312 -0.21669246
-0.075052075 -0.032903645 -0.21666597
-0.07545764 -0.03308697 -0.21663946
-0.075863205 -0.033270303 -0.21661298
-0.07626877 -0.033453632 -0.21658649
-0.076451868 -0.033940051 -0.21700786
-0.076634668 -0.034425672 -0.21742857
-0.076669097 -0.035111394 -0.21814577
-0.077221721 -0.035093356 -0.21782212
-0.077923775 -0.034874141 -0.2172002
-0.078030832 -0.035459101 -0.21776925
-0.078435384 -0.035641979 -0.21774283
-0.079064012 -0.035523824 -0.21726985
-0.079543784 -0.035606444 -0.21709438
-0.08024919 -0.035387553 -0.21647097
-0.080729954 -0.035470255 -0.21629503
-0.081362061 -0.03535166 -0.21581967
-0.081843667 -0.03543444 -0.21564336
-0.08232554 -0.035517268 -0.21546695
-0.082731664 -0.03570085 -0.21544041
-0.08306171 -0.035985038 -0.21556379
-0.083467714 -0.036168572 -0.21553726
-0.083873726 -0.036352105 -0.21551074
-0.084203355 -0.036636032 -0.21563405
-0.084532805 -0.036919802 -0.2157573
-0.084938593 -0.037103232 -0.21573079
-0.085344382 -0.037286665 -0.21570429
-0.085826956 -0.037369955 -0.21552798
-0.086232856 -0.037553441 -0.21550146
-0.086561747 -0.037836958 -0.21562475
-0.086967528 -0.038020391 -0.21559824
-0.087373316 -0.038203821 -0.21557173
-0.087933846 -0.038187429 -0.2152455
-0.088184893 -0.038570683 -0.21551871
-0.088590674 -0.038754113 -0.2154922
-0.08891882 -0.03903722 -0.21561545
-0.089324497 -0.039220601 -0.21558896
-0.089730173 -0.039403979 -0.21556245
-0.090682626 -0.038889531 -0.21448572
-0.030225702 -0.003183363 -0.20874064
-0.030076317 -0.0043732403 -0.21010207
-0.029741187 -0.0058884155 -0.21191557
-0.03015255 -0.0060743671 -0.2118887
-0.030439295 -0.0064806738 -0.2121674
-0.030601149 -0.0071062827 -0.21275069
-0.030142117 -0.0088226357 -0.21484877
-0.03048921 -0.0091163777 -0.21497321
-0.030712103 -0.0096272063 -0.21539946
-0.03105865 -0.0099203968 -0.21552359
-0.031405006 -0.010213424 -0.21564765
-0.031626824 -0.010722626 -0.21607275
-0.031972636 -0.011015104 -0.21619654
-0.032255977 -0.011415277 -0.21647052
-0.032601327 -0.011707318 -0.21659407
-0.033008918 -0.011891564 -0.21656744
-0.033416513 -0.012075812 -0.21654081
-0.033761442 -0.012367588 -0.21666433
-0.034043476 -0.012766564 -0.21693775
-0.034199804 -0.0133793 -0.21751024
-0.034105521 -0.014417219 -0.21867795
-0.034323748 -0.014919836 -0.21909794
-0.034354232 -0.015739547 -0.21996231
-0.034260053 -0.016767405 -0.22111915
-0.034414895 -0.017370848 -0.22168247
-0.034507222 -0.018077744 -0.22239149
-0.034599289 -0.018782699 -0.22309855
-0.043250304 -0.012133412 -0.21118179
-0.043266222 -0.012969276 -0.21207155
-0.044138934 -0.012396724 -0.21097499
-0.074213758 -0.031196186 -0.21460497
-0.074325465 -0.031788148 -0.21517974
-0.074584387 -0.032175478 -0.21545337
-0.07425385 -0.033373002 -0.21692289
-0.074659072 -0.033556174 -0.21689643
-0.075138032 -0.033638325 -0.2167207
-0.075617254 -0.033720516 -0.21654488
-0.076022707 -0.033903793 -0.21651839
-0.076279983 -0.034288887 -0.21679053
-0.076241001 -0.035075862 -0.21765798
-0.076423675 -0.03555974 -0.21807745
-0.076827899 -0.035742458 -0.21805105
-0.077083945 -0.036125369 -0.21832152
-0.07741382 -0.036407955 -0.21844344
-0.077817701 -0.036590528 -0.21841705
-0.078519255 -0.036373325 -0.21779683
-0.079372004 -0.035955086 -0.21687715
-0.080002099 -0.035837058 -0.21640293
-0.080557935 -0.035819378 -0.21607752
-0.081114389 -0.035801675 -0.21575174
-0.081595786 -0.035884555 -0.21557546
-0.082001686 -0.036068037 -0.21554893
-0.082331747 -0.036351968 -0.21567221
-0.082737535 -0.036535397 -0.2156457
-0.083143316 -0.036718827 -0.21561919
-0.083549112 -0.03690226 -0.21559268
-0.083878644 -0.037185878 -0.21571591
-0.084284328 -0.037369259 -0.21568941
-0.084689997 -0.03755264 -0.2156629
-0.085172258 -0.037635982 -0.21548665
-0.085578047 -0.037819412 -0.21546012
-0.085983835 -0.038002841 -0.21543363
-0.086389616 -0.038186274 -0.21540712
-0.086795412 -0.038369704 -0.21538059
-0.08758758 -0.03805339 -0.2146039
-0.087839022 -0.038437039 -0.21487768
-0.088167638 -0.03872047 -0.21500123
-0.088496089 -0.039003741 -0.21512467
-0.088824347 -0.039286859 -0.21524806
-0.089230135 -0.039470289 -0.21522154
-0.089635916 -0.039653722 -0.21519504
-0.090510219 -0.039239429 -0.21426772
-0.030289402 -0.0058767488 -0.21090238
-0.030451741 -0.0065042642 -0.21148822
-0.030551428 -0.0072402447 -0.21222541
-0.030402265 -0.0084116058 -0.21356857
-0.030377673 -0.0093596913 -0.21460265
-0.030786743 -0.0095446054 -0.21457593
-0.030947397 -0.010163663 -0.2151536
-0.031231783 -0.010564977 -0.21542864
-0.031391673 -0.011181867 -0.2160044
-0.031675339 -0.011581945 -0.21627849
-0.032020848 -0.011873942 -0.2164021
-0.032366164 -0.012165775 -0.21652564
-0.032586694 -0.012672219 -0.21694906
-0.032993831 -0.012856261 -0.21692248
-0.033400971 -0.013040303 -0.21689588
-0.033808108 -0.013224346 -0.21686928
-0.034027252 -0.013729488 -0.21729207
-0.034371343 -0.014020241 -0.21741512
-0.034151725 -0.015268959 -0.21888043
-0.034182493 -0.016088091 -0.21974516
-0.034275439 -0.016799094 -0.22045918
-0.034243722 -0.017718241 -0.22146605
-0.034026138 -0.018947219 -0.22290899
-0.033809751 -0.020169472 -0.22434403
-0.033840757 -0.020972067 -0.22519082
-0.034241445 -0.021153193 -0.22516464
-0.042878523 -0.012812544 -0.21142009
-0.043092076 -0.013322699 -0.21185136
-0.069480143 -0.031909898 -0.21729493
-0.069812916 -0.032194346 -0.21741746
-0.074559577 -0.032321926 -0.21493512
-0.074081965 -0.033721831 -0.21670555
-0.074413665 -0.03400594 -0.2168283
-0.074671619 -0.034390654 -0.21710005
-0.075002879 -0.034674343 -0.21722259
-0.075260289 -0.035058368 -0.21749388
-0.075812437 -0.035040289 -0.21716969
-0.076069407 -0.035424117 -0.21744102
-0.076104589 -0.036107901 -0.21815762
-0.075918816 -0.037088715 -0.21931589
-0.075807229 -0.037966128 -0.22032191
-0.075842574 -0.038642686 -0.22103064
-0.076244362 -0.038824305 -0.22100438
-0.076646149 -0.039005928 -0.22097814
-0.078901298 -0.036704239 -0.21725601
-0.07983017 -0.036185991 -0.21618553
-0.080310687 -0.036268886 -0.21600957
-0.080791473 -0.03635183 -0.21583351
-0.08127252 -0.036434818 -0.21565735
-0.081602603 -0.036718488 -0.21578051
-0.082008153 -0.036901817 -0.21575403
-0.082337946 -0.037185282 -0.21587713
-0.082743391 -0.037368558 -0.21585065
-0.083148845 -0.037551839 -0.21582416
-0.083630413 -0.037635133 -0.21564804
-0.08403597 -0.037818462 -0.21562155
-0.084517919 -0.037901856 -0.21544532
-0.084923603 -0.038085237 -0.21541883
-0.08509957 -0.038567953 -0.21584129
-0.085581549 -0.038651507 -0.21566524
-0.086140625 -0.038635377 -0.2153393
-0.086623281 -0.038719021 -0.21516296
-0.087260626 -0.03860306 -0.21468641
-0.087589413 -0.038886443 -0.21480998
-0.087918013 -0.039169673 -0.21493348
-0.088323914 -0.039353155 -0.21490696
-0.088807449 -0.039437041 -0.21473041
-0.089213461 -0.039620575 -0.21470389
-0.089931346 -0.039405592 -0.21407628
-0.030339504 -0.0067483466 -0.21111441
-0.030563962 -0.0072644614 -0.21154666
-0.030601183 -0.0081085023 -0.21243581
-0.030638283 -0.0089497129 -0.21332197
-0.03073732 -0.009679405 -0.21405371
-0.031022299 -0.010081661 -0.21432981
-0.03118269 -0.01070012 -0.21490777
-0.031218642 -0.011533028 -0.21578561
-0.031502403 -0.011932912 -0.21605982
-0.031785849 -0.012332351 -0.21633373
-0.032068983 -0.012731346 -0.21660732
-0.032413997 -0.013022699 -0.21673071
-0.032509916 -0.013741892 -0.21745287
-0.03291649 -0.013925679 -0.2174263
-0.033385463 -0.014002656 -0.21725014
-0.033792153 -0.014186494 -0.21722357
-0.034011066 -0.014690277 -0.2176456
-0.03429218 -0.015086861 -0.21791771
-0.034260284 -0.016013386 -0.21893394
-0.034353234 -0.016725278 -0.21964987
-0.03413469 -0.017960709 -0.22110218
-0.033855435 -0.019293658 -0.22269315
-0.033577859 -0.02061859 -0.22427452
-0.033301953 -0.021935567 -0.22584642
-0.033701986 -0.022116397 -0.22582029
-0.034472175 -0.021679243 -0.22492357
-0.04283566 -0.012949781 -0.21089377
-0.043246791 -0.013135628 -0.21086691
-0.068903342 -0.032075461 -0.21710418
-0.069092296 -0.032562356 -0.21752457
-0.069496959 -0.032745276 -0.21749812
-0.070046075 -0.032725919 -0.21717386
-0.074056946 -0.033868734 -0.21618944
-0.074168392 -0.034455452 -0.21676022
-0.074426398 -0.034839813 -0.21703193
-0.074684136 -0.035223752 -0.21730334
-0.075088695 -0.035406627 -0.2172769
-0.075493246 -0.035589501 -0.21725047
-0.075897805 -0.035772372 -0.21722405
-0.075418144 -0.03715397 -0.21897817
-0.075234227 -0.038130604 -0.2201324
-0.07519725 -0.038905662 -0.2209882
-0.075452581 -0.039284434 -0.22125536
-0.075415321 -0.040055908 -0.22210746
-0.075816117 -0.040237084 -0.22208127
