# .PCD v0.7 - Point Cloud Data file format
VERSION 0.7
FIELDS x y z
SIZE 4 4 4
TYPE F F F
COUNT 1 1 1
WIDTH 1292
HEIGHT 1
VIEWPOINT 0 0 0 1 0 0 0
POINTS 1292
DATA ascii
-0.081568673 0.077823386 -0.024789594
-0.080421992 0.078630008 -0.026540862
-0.080074184 0.077965587 -0.025960496
-0.06166517 0.066062801 -0.023687957
-0.060931638 0.0661432 -0.024275627
-0.060383279 0.065845534 -0.024277495
-0.05983492 0.065547869 -0.024279362
-0.05919493 0.065439478 -0.024573788
-0.05846417 0.065520264 -0.025160085
-0.058281109 0.064465225 -0.023992185
-0.058371935 0.062834933 -0.02193819
-0.057913285 0.062345278 -0.021645457
-0.057363 0.062046565 -0.021647329
-0.057086099 0.061173063 -0.020764003
-0.056535173 0.060874004 -0.020765878
-0.056256972 0.059998099 -0.019880483
-0.10599175 0.097534694 -0.03154112
-0.10415366 0.09933155 -0.0349693
-0.10318514 0.099731669 -0.036106266
-0.10200695 0.10047559 -0.037804302
-0.10093972 0.10104435 -0.039213721
-0.10008673 0.10126808 -0.040057532
-0.099340461 0.10131995 -0.040619615
-0.098699816 0.10120041 -0.040901247
-0.09816394 0.10090952 -0.040903073
-0.097316049 0.1011329 -0.041743048
-0.096677132 0.10101361 -0.042023826
-0.095935427 0.10106554 -0.042582929
-0.095297761 0.10094641 -0.042863075
-0.094763309 0.10065629 -0.042864896
-0.094434127 0.1000234 -0.042309862
-0.094001815 0.099561378 -0.042032938
-0.093466751 0.099270925 -0.04203476
-0.09252356 0.099667341 -0.043150283
-0.091583222 0.10006256 -0.044262439
-0.090948649 0.099944085 -0.044541318
-0.090415396 0.099654622 -0.044543132
-0.089882158 0.099365167 -0.04454495
-0.08904779 0.099589199 -0.045376681
-0.088315181 0.099641964 -0.045930728
-0.087782934 0.099353045 -0.045932543
-0.089255944 0.095617399 -0.040374301
-0.089123555 0.094630212 -0.039253969
-0.088485576 0.094512984 -0.039536655
-0.08794868 0.094221547 -0.039538488
-0.087211058 0.094278805 -0.04010139
-0.086674578 0.093987584 -0.040103219
-0.086138092 0.093696371 -0.040105045
-0.085801102 0.093055785 -0.039545804
-0.085264206 0.09276434 -0.03954763
-0.08472731 0.092472903 -0.039549459
-0.084190421 0.092181459 -0.039551288
-0.084050164 0.091187909 -0.038428426
-0.087216958 0.07272917 -0.0137107
-0.086454108 0.072805338 -0.014313609
-0.085795611 0.072692737 -0.014615653
-0.082187198 0.077990822 -0.023513678
-0.080240898 0.080263279 -0.027596498
-0.079695299 0.079967111 -0.027598357
-0.0798437 0.078387693 -0.025565283
-0.061619248 0.066107914 -0.022704495
-0.06088518 0.066188328 -0.023293385
-0.060152255 0.06626863 -0.023881361
-0.059512146 0.066159956 -0.02417594
-0.05878114 0.066240191 -0.024762547
-0.058051266 0.066320293 -0.025348246
-0.057685696 0.065645553 -0.024766279
-0.058231734 0.063068569 -0.021246057
-0.05795585 0.062196258 -0.020362262
-0.057404924 0.061897203 -0.020364137
-0.056945175 0.061406411 -0.020070331
-0.056394033 0.061107233 -0.020072209
-0.10382582 0.10223094 -0.03769033
-0.10296823 0.10245366 -0.038537167
-0.10243093 0.102162 -0.038538992
-0.10168174 0.10221326 -0.039103083
-0.10125054 0.10175031 -0.038823891
-0.1003972 0.10197324 -0.039668147
-0.099650696 0.10202458 -0.040230528
-0.099009924 0.10190477 -0.040512305
-0.098474056 0.10161388 -0.040514134
-0.097833976 0.10149428 -0.040795699
-0.096986778 0.10171691 -0.041635476
-0.096244834 0.10176829 -0.042194869
-0.095607057 0.1016489 -0.042475164
-0.094661698 0.10204127 -0.043588758
-0.094128042 0.1017516 -0.043590575
-0.094003685 0.10077855 -0.042480625
-0.093469232 0.10048843 -0.042482443
-0.092628904 0.1007117 -0.043318402
-0.091790482 0.10093445 -0.044152465
-0.091156065 0.10081568 -0.044431277
-0.090723991 0.10035552 -0.044156101
-0.090190746 0.10006607 -0.044157919
-0.08955694 0.099947631 -0.044436727
-0.088923603 0.099829286 -0.044715323
-0.088290751 0.099711031 -0.044993717
-0.087857917 0.099250801 -0.044718955
-0.088224955 0.097414881 -0.042222191
-0.088393033 0.095913604 -0.040268872
-0.088259384 0.094927236 -0.039148808
-0.087722488 0.0946358 -0.039150633
-0.087185591 0.094344363 -0.039152462
-0.086548589 0.094227284 -0.039435081
-0.085912071 0.09411031 -0.039717488
-0.085475214 0.093644634 -0.039438739
-0.085038014 0.0931786 -0.039159779
-0.084501125 0.092887156 -0.039161608
-0.083964229 0.092595711 -0.039163437
-0.084320702 0.090722941 -0.036628548
-0.086290844 0.085977562 -0.029491695
-0.086220182 0.073233768 -0.013912491
-0.083617292 0.076677069 -0.019876074
-0.079961509 0.082071811 -0.02893691
-0.079219818 0.082139224 -0.029515781
-0.078774326 0.081662469 -0.029229237
-0.078230187 0.081367098 -0.02923109
-0.061944906 0.065394156 -0.02054026
-0.061023615 0.065854728 -0.021721371
-0.060289443 0.065935411 -0.022311484
-0.059556413 0.066015966 -0.02290068
-0.058733072 0.066285349 -0.023781827
-0.058002666 0.06636548 -0.024368741
-0.058734056 0.061962821 -0.01848088
-0.058090247 0.061855111 -0.018779526
-0.057264127 0.062130831 -0.019670311
-0.056712981 0.061831657 -0.019672187
-0.10370976 0.10362248 -0.038426746
-0.10317266 0.10333093 -0.038428575
-0.1024232 0.10338129 -0.038992535
-0.10199244 0.10291896 -0.038713407
-0.10124416 0.10296962 -0.039276935
-0.10070767 0.1026784 -0.039278764
-0.10006601 0.10255825 -0.039561119
-0.099424854 0.1024382 -0.039843261
-0.098784171 0.10231823 -0.040125191
-0.098039731 0.10236925 -0.040686581
-0.097504266 0.10207858 -0.040688403
-0.09665776 0.10230046 -0.041527983
-0.096019581 0.10218082 -0.041808635
-0.094970517 0.10274271 -0.043201435
-0.094232053 0.10279318 -0.043758173
-0.093596719 0.10267372 -0.044037133
-0.093165569 0.10221426 -0.043761801
-0.092530631 0.10209502 -0.044040766
-0.091896176 0.10197587 -0.04431951
-0.091363333 0.10168662 -0.044321328
-0.09083049 0.10139739 -0.044323143
-0.090297654 0.10110814 -0.044324957
-0.089764811 0.1008189 -0.044326771
-0.089332364 0.10035892 -0.044051655
-0.088699117 0.10024042 -0.044330403
-0.088166274 0.09995117 -0.044332214
-0.087833114 0.099319667 -0.043779965
-0.087799378 0.098171718 -0.042392954
-0.087665282 0.097192138 -0.041279927
-0.087530777 0.096209586 -0.040163521
-0.08709503 0.095745228 -0.03988526
-0.086558953 0.095454231 -0.039887086
-0.086022876 0.095163241 -0.039888911
-0.085188471 0.095393226 -0.040730353
-0.085149564 0.094233029 -0.039331757
-0.084811829 0.093592852 -0.038771927
-0.084772103 0.092426121 -0.037365872
-0.085332401 0.090195492 -0.034251407
-0.084892303 0.089725114 -0.033968646
-0.083385192 0.077102147 -0.019478085
-0.079732187 0.082491808 -0.028543675
-0.07859724 0.083282381 -0.030274833
-0.078446746 0.082263641 -0.029124705
-0.078000948 0.081786938 -0.028838009
-0.077751026 0.080946043 -0.027972883
-0.077206261 0.080650337 -0.02797474
-0.069674633 0.076326519 -0.027711289
-0.06217872 0.064867735 -0.018662576
-0.061162487 0.065520078 -0.020144457
-0.10455556 0.10347384 -0.036627091
-0.10337694 0.10420754 -0.038320068
-0.10284004 0.1039161 -0.038321897
-0.10230315 0.10362466 -0.038323727
-0.10176626 0.10333321 -0.038325556
-0.10101815 0.10338356 -0.038889378
-0.10037637 0.10326315 -0.039171882
-0.099735081 0.10314282 -0.039454173
-0.099094287 0.10302259 -0.039736249
-0.098349608 0.10307308 -0.040297937
-0.097710066 0.102953 -0.040579371
-0.096967295 0.10300348 -0.041139781
-0.096019164 0.10339411 -0.042256236
-0.095279351 0.10344413 -0.042814109
-0.094233654 0.10400257 -0.044202384
-0.093701012 0.10371344 -0.044204198
-0.09316837 0.10342431 -0.044206012
-0.092737384 0.10296547 -0.043930959
-0.092103086 0.10284604 -0.04420964
-0.091570452 0.10255691 -0.044211455
-0.091037802 0.10226778 -0.044213273
-0.090505168 0.10197864 -0.044215083
-0.089972518 0.10168951 -0.044216901
-0.08933951 0.10157059 -0.044495374
-0.088907234 0.10111124 -0.044220529
-0.088474639 0.10065154 -0.043945476
-0.087941796 0.10036231 -0.043947291
-0.087508664 0.099902146 -0.043672033
-0.087075219 0.09944164 -0.04339657
-0.086940274 0.098465838 -0.042287163
-0.086904801 0.097314529 -0.04089522
-0.086669177 0.096505344 -0.040058255
-0.085934207 0.096560746 -0.040619485
-0.085398942 0.096270189 -0.040621307
-0.08486367 0.095979631 -0.040623128
-0.084427409 0.095515713 -0.040345356
-0.085083403 0.093133166 -0.036975447
-0.084545486 0.092841171 -0.03697728
-0.085205033 0.090435393 -0.033576433
-0.084864877 0.089787655 -0.033008121
-0.085832536 0.086816922 -0.028705835
-0.085288614 0.08652167 -0.028707689
-0.078958511 0.082616322 -0.028152296
-0.078414172 0.082320839 -0.02815415
-0.077869825 0.082025349 -0.028156005
-0.077423461 0.081548192 -0.027868714
-0.076878905 0.081252597 -0.027870569
-0.076334357 0.080956995 -0.027872423
-0.075478852 0.078607142 -0.025556808
-0.07464087 0.078860678 -0.026430789
-0.074386373 0.078014113 -0.02556053
-0.077578679 0.070629328 -0.014337782
-0.076031864 0.072215326 -0.017325846
-0.074987411 0.072854094 -0.018812072
-0.073168188 0.074979551 -0.022646263
-0.071463145 0.076899767 -0.026151463
-0.070534989 0.077338658 -0.027313886
-0.069990017 0.07704284 -0.027315743
-0.068498529 0.078577355 -0.030203385
-0.067861609 0.078465044 -0.030492593
-0.061946347 0.06529332 -0.01826412
-0.061023261 0.065754943 -0.019451084
-0.10497434 0.10401011 -0.035953764
-0.10390105 0.10457236 -0.037367232
-0.10304437 0.10479215 -0.038213469
-0.10261385 0.10433035 -0.037934043
-0.10207696 0.10403891 -0.037935875
-0.10154007 0.10374746 -0.037937701
-0.10100318 0.10345604 -0.037939534
-0.10025564 0.10350628 -0.038503651
-0.099509239 0.10355645 -0.039066911
-0.098868519 0.10343606 -0.039349131
-0.098019831 0.10365656 -0.040190872
-0.097276814 0.1037065 -0.040751576
-0.096328221 0.10409606 -0.04186862
-0.09569113 0.10397593 -0.042148717
-0.094746716 0.10436434 -0.043261543
-0.094009265 0.10441355 -0.043817606
-0.093476616 0.10412441 -0.04381942
-0.092842288 0.10400458 -0.044098042
-0.092411332 0.10354615 -0.043823048
-0.09167619 0.10359593 -0.044378266
-0.091143951 0.10330702 -0.04438008
-0.090611711 0.1030181 -0.044381894
-0.090079471 0.10272919 -0.044383705
-0.089446895 0.10260997 -0.044661906
-0.088914856 0.10232117 -0.04466372
-0.088482745 0.10186245 -0.044389144
-0.088150203 0.10123309 -0.043837562
-0.087617554 0.10094395 -0.043839373
-0.087184474 0.10048418 -0.043564182
-0.086651623 0.10019495 -0.043566
-0.08611878 0.099905699 -0.04356781
-0.085585937 0.099616461 -0.043569624
-0.085151926 0.099156022 -0.043294225
-0.085311353 0.097663902 -0.041349661
-0.084875926 0.097201332 -0.041072585
-0.084341265 0.096911103 -0.041074406
-0.083905295 0.096448071 -0.040797122
-0.084856778 0.093548208 -0.036586858
-0.084318861 0.093256213 -0.036588691
-0.084877253 0.091029078 -0.033470958
-0.084637046 0.090204917 -0.032617446
-0.082760349 0.091032706 -0.034897696
-0.082221195 0.090740032 -0.034899537
-0.082275435 0.089385659 -0.033195265
-0.081735052 0.089092322 -0.033197101
-0.078381546 0.082378127 -0.027182098
-0.077836774 0.082082413 -0.027183954
-0.077194043 0.081968352 -0.027475329
-0.076649487 0.08167275 -0.027477184
-0.076007463 0.081558898 -0.027768333
-0.075248726 0.079028599 -0.025162207
-0.074508093 0.079098612 -0.025746012
-0.073865406 0.078985482 -0.026038503
-0.074582241 0.076295644 -0.022244524
-0.075306356 0.073578514 -0.01841205
-0.073972352 0.074772075 -0.020778107
-0.072937176 0.075402647 -0.022250127
-0.071233198 0.077320904 -0.025757166
-0.070400782 0.077575728 -0.026630241
-0.069760419 0.077463329 -0.026922055
-0.068836316 0.077900678 -0.028081501
-0.06772694 0.078701541 -0.029813059
-0.067748055 0.077309936 -0.028085208
-0.062452417 0.065637693 -0.017269539
-0.061341964 0.066478796 -0.019051377
-0.060698647 0.066369586 -0.0193491
-0.059687268 0.067017734 -0.020826764
-0.059597652 0.06577193 -0.01935285
-0.059692401 0.064139485 -0.017278939
-0.10474754 0.10442546 -0.035564877
-0.10367469 0.10498692 -0.036979087
-0.10271205 0.10537631 -0.038106956
-0.10228158 0.10491492 -0.037827596
-0.10185077 0.10445316 -0.037548024
-0.10131387 0.10416172 -0.03754985
-0.10056611 0.10421143 -0.038114265
-0.099819474 0.10426107 -0.038677823
-0.099178642 0.10414042 -0.038960192
-0.098329589 0.10436012 -0.039802372
-0.097586349 0.10440952 -0.040363371
-0.096637286 0.10479802 -0.041481003
-0.096000075 0.10467762 -0.041761246
-0.095260561 0.10472666 -0.042319283
-0.094522148 0.10477563 -0.042876471
-0.093784861 0.10482451 -0.043432824
-0.093150415 0.10470442 -0.043711595
-0.092516445 0.10458442 -0.04399015
-0.092085533 0.10412637 -0.04371522
-0.091451958 0.10400659 -0.043993779
-0.090919726 0.10371768 -0.043995589
-0.090387478 0.10342877 -0.043997403
-0.089855239 0.10313985 -0.043999214
-0.089122571 0.10318989 -0.044553883
-0.088590734 0.1029012 -0.044555694
-0.088158667 0.10244286 -0.044281185
-0.087726273 0.10198419 -0.044006467
-0.087293558 0.10152517 -0.043731544
-0.086860515 0.10106578 -0.043456409
-0.086327873 0.10077666 -0.043458227
-0.085795224 0.10048752 -0.043460041
-0.085262589 0.1001984 -0.043461852
-0.084828615 0.099738352 -0.043186516
-0.084394313 0.099277951 -0.042910971
-0.084551737 0.097786158 -0.040965389
-0.084017284 0.09749604 -0.040967211
-0.083581351 0.097033411 -0.04068999
-0.083046697 0.096743181 -0.040691815
-0.084092245 0.093671255 -0.036200099
-0.084950015 0.090915747 -0.032224935
-0.084409207 0.090622187 -0.032226771
-0.082478493 0.092795268 -0.036205597
-0.082039163 0.092327841 -0.035924766
-0.081501037 0.092035733 -0.035926599
-0.081159487 0.091391928 -0.035362463
-0.080915757 0.090570703 -0.034513731
-0.080967002 0.089215934 -0.032808568
-0.079586834 0.081457481 -0.024169555
-0.078348868 0.082435504 -0.026208546
-0.077803679 0.082139559 -0.026210403
-0.07716047 0.082025394 -0.026502378
-0.076615497 0.081729561 -0.026504233
-0.075875521 0.081797317 -0.027085653
-0.076208934 0.079860128 -0.024472417
-0.075662479 0.079563506 -0.02447428
-0.0750186 0.079450063 -0.024767606
-0.074278146 0.079519741 -0.025351712
-0.073635548 0.079406455 -0.02564436
-0.073089942 0.079110287 -0.025646217
-0.073802866 0.076421082 -0.021850258
-0.073546104 0.075567387 -0.020970259
-0.072706148 0.075825751 -0.021853995
-0.071579181 0.076637633 -0.023613442
-0.070457429 0.077445753 -0.025364729
-0.069816306 0.077333264 -0.025657369
-0.06870167 0.078137599 -0.027399205
-0.068062954 0.078025155 -0.027690271
-0.067612976 0.077546634 -0.027402911
-0.06407702 0.065137699 -0.014479442
-0.062959276 0.06598261 -0.016273404
-0.06184677 0.066823572 -0.018058961
-0.061109953 0.066903718 -0.018653542
-0.060466725 0.066794328 -0.018951422
-0.059639756 0.067063637 -0.019839926
-0.059365731 0.06619668 -0.018955173
-0.05899905 0.065517895 -0.018364813
-0.05890784 0.064265758 -0.016882055
-0.10452075 0.10484082 -0.035175987
-0.10291627 0.10625114 -0.037998695
-0.10237999 0.10596003 -0.038000524
-0.10184371 0.10566892 -0.038002346
-0.10151878 0.10503768 -0.037441719
-0.10087657 0.10491659 -0.037724879
-0.10023486 0.1047956 -0.038007829
-0.099488758 0.10484477 -0.03857125
-0.098639362 0.10506367 -0.039413877
-0.098104089 0.10477312 -0.039415698
-0.097257234 0.10499185 -0.040256403
-0.096412294 0.10521008 -0.041095205
-0.095672183 0.10525873 -0.041653953
-0.095035821 0.10513825 -0.041933917
-0.094195306 0.10535583 -0.042768922
-0.093560465 0.10523549 -0.043048047
-0.0929261 0.10511524 -0.043326959
-0.092292212 0.10499509 -0.043605659
-0.091759972 0.10470617 -0.043607477
-0.091126762 0.10458621 -0.043885969
-0.090594724 0.1042974 -0.043887779
-0.090062685 0.1040086 -0.04388959
-0.089530647 0.10371979 -0.043891404
-0.088898517 0.10360025 -0.044169687
-0.08836668 0.10331155 -0.044171494
-0.087834828 0.10302286 -0.044173304
-0.087402478 0.10256457 -0.04389865
-0.086969808 0.10210593 -0.04362379
-0.086437568 0.10181703 -0.043625604
-0.085905328 0.10152811 -0.043627415
-0.085471921 0.10106891 -0.043352347
-0.085038193 0.10060937 -0.043077074
-0.084505543 0.10032023 -0.043078888
-0.084071286 0.099860236 -0.042803407
-0.083833434 0.099057287 -0.041972075
-0.083496623 0.098424383 -0.041417416
-0.082962766 0.0981346 -0.041419234
-0.082428917 0.097844809 -0.041421056
-0.08386562 0.094086297 -0.03581151
-0.085123345 0.090624936 -0.03068953
-0.082009673 0.092392102 -0.034969762
-0.081274331 0.092450932 -0.035537861
-0.080834374 0.091983207 -0.035256669
-0.081082389 0.09028025 -0.032986522
-0.080739342 0.089632891 -0.032418195
-0.081483655 0.087022133 -0.028692579
-0.079554968 0.081514344 -0.023190275
-0.078513399 0.08212921 -0.024651373
-0.077770531 0.082196794 -0.025235347
-0.076930873 0.082445875 -0.02610869
-0.076093152 0.082694389 -0.026980013
-0.075548805 0.082398906 -0.026981866
-0.075101554 0.081921883 -0.026694125
-0.075139828 0.080533445 -0.024953699
-0.074594013 0.080237165 -0.02495556
-0.074048206 0.079940878 -0.024957417
-0.073405683 0.079827428 -0.025250215
-0.072860084 0.079531267 -0.025252074
-0.072507098 0.078868829 -0.024671834
-0.073023491 0.07654652 -0.021455992
-0.072378382 0.076433852 -0.021751512
-0.07173378 0.076321281 -0.022046804
-0.070801608 0.076762781 -0.02322009
-0.06987232 0.077202909 -0.024389748
-0.069040842 0.077458076 -0.025265083
-0.068305865 0.077529207 -0.025848132
-0.066207685 0.062210046 -0.0083435662
-0.063749425 0.065755956 -0.014378848
-0.062539309 0.066789165 -0.016470127
-0.061521579 0.06743826 -0.017957442
-0.060877942 0.067328632 -0.018255709
-0.060327232 0.067029685 -0.018257586
-0.059868801 0.066541091 -0.017963072
-0.059410013 0.066052116 -0.017668327
-0.058858871 0.065752938 -0.017670205
-0.058675289 0.064691663 -0.016483288
-0.10333299 0.10678663 -0.037328187
-0.10247825 0.10700357 -0.038173184
-0.10226002 0.1062042 -0.037331842
-0.10172353 0.10591297 -0.037333667
-0.10118704 0.10562175 -0.037335496
-0.10065056 0.10533053 -0.037337326
-0.099903852 0.10537932 -0.037901469
-0.098949119 0.10576723 -0.039025374
-0.098413847 0.10547667 -0.039027199
-0.097566642 0.1056946 -0.039868347
-0.096824817 0.10574295 -0.040428657
-0.09608411 0.10579122 -0.040988121
-0.095344529 0.10583942 -0.04154674
-0.094503671 0.1060562 -0.042382184
-0.093868703 0.1059356 -0.042661451
-0.093234234 0.10581508 -0.042940509
-0.092498742 0.10586314 -0.043496184
-0.091966696 0.10557433 -0.043497998
-0.091434665 0.10528553 -0.043499809
-0.090801813 0.1051654 -0.043778237
-0.090269975 0.1048767 -0.043780047
-0.089738138 0.10458799 -0.043781862
-0.089206293 0.1042993 -0.043783672
-0.088674456 0.1040106 -0.043785483
-0.088142619 0.10372191 -0.043787297
-0.087511249 0.10360241 -0.044065509
-0.086979605 0.10331382 -0.044067323
-0.086447969 0.10302523 -0.044069134
-0.086015262 0.10256711 -0.043794539
-0.085582219 0.10210866 -0.043519747
-0.085050181 0.10181986 -0.043521557
-0.084616616 0.10136094 -0.043246552
-0.084182724 0.10090168 -0.042971339
-0.083748505 0.10044207 -0.042695925
-0.083313964 0.09998212 -0.042420294
-0.083075248 0.099179313 -0.041588534
-0.082541801 0.098889746 -0.041590352
-0.082106151 0.09842851 -0.04131389
-0.081767894 0.09779489 -0.04075852
-0.084895156 0.091042846 -0.030298257
-0.083828077 0.087905124 -0.02713782
-0.082485311 0.089039087 -0.029446188
-0.081943065 0.088744737 -0.029448034
-0.080807373 0.089517906 -0.031170482
-0.080266364 0.089224234 -0.031172326
-0.080711767 0.087146364 -0.028302103
-0.079324484 0.081936464 -0.022795061
-0.078283362 0.082550511 -0.024256924
-0.077737339 0.082254112 -0.024258783
-0.076799132 0.082684912 -0.025424579
-0.076058738 0.08275196 -0.026007054
-0.075416684 0.082637653 -0.026298886
-0.07496921 0.08216054 -0.026010767
-0.074812643 0.08113692 -0.024850495
-0.074364066 0.080658302 -0.02456126
-0.073721439 0.080544576 -0.024854211
-0.073175825 0.080248408 -0.02485607
-0.072630227 0.07995224 -0.024857929
-0.072277062 0.079290122 -0.024277383
-0.071827158 0.078810424 -0.023987703
-0.07147295 0.078146659 -0.023405809
-0.071502939 0.076744057 -0.021650977
-0.070955001 0.076446615 -0.021652844
-0.070119686 0.076703452 -0.022534074
-0.069381602 0.076775387 -0.023121044
-0.06921576 0.075739451 -0.021951789
-0.064922348 0.064761631 -0.011272404
-0.063516229 0.066183038 -0.013978988
-0.062306754 0.06721507 -0.016071362
-0.061661553 0.067105308 -0.016370948
-0.060738552 0.067564286 -0.01756133
-0.060280107 0.067075707 -0.01726643
-0.059728965 0.066776536 -0.017268308
-0.059269942 0.066287458 -0.016973177
-0.058718584 0.065988168 -0.016975056
-0.10268232 0.10787679 -0.03806502
-0.10225249 0.10741704 -0.037786067
-0.10192812 0.1067876 -0.037225701
-0.10149752 0.10632692 -0.036946114
-0.10096103 0.10603569 -0.03694794
-0.10031927 0.10591426 -0.037231181
-0.099468283 0.10613212 -0.038075969
-0.09861923 0.10634948 -0.038918834
-0.097460754 0.10707249 -0.040597014
-0.096926905 0.1067827 -0.040598836
-0.096186683 0.10683015 -0.041157745
-0.095653236 0.10654058 -0.041159566
-0.094709598 0.10692483 -0.042273045
-0.094176948 0.1066357 -0.042274855
-0.09354236 0.10651492 -0.042554062
-0.09280663 0.10656245 -0.043110028
-0.092173271 0.10644184 -0.043388601
-0.091641434 0.10615315 -0.043390416
-0.091109596 0.10586445 -0.043392226
-0.090477102 0.10574414 -0.043670591
-0.089945465 0.10545555 -0.043672401
-0.089413829 0.10516696 -0.043674208
-0.088982232 0.10470966 -0.043399472
-0.088350549 0.10458979 -0.043677833
-0.087719336 0.10447001 -0.043955985
-0.087187894 0.10418153 -0.043957796
-0.086656459 0.10389305 -0.043959606
-0.086125024 0.10360457 -0.043961413
-0.085692354 0.10314684 -0.043686885
-0.08516071 0.10285825 -0.0436887
-0.084727518 0.10240008 -0.043413963
-0.084195681 0.10211138 -0.043415774
-0.083860144 0.10148269 -0.042863876
-0.083425969 0.10102347 -0.042588521
-0.082991473 0.10056391 -0.042312957
-0.082458824 0.10027478 -0.042314775
-0.081926182 0.099985652 -0.042316586
-0.081490949 0.099525519 -0.042040817
-0.081542902 0.098206952 -0.040372722
-0.081008852 0.09791705 -0.040374544
-0.080579452 0.08993534 -0.03077966
-0.079743639 0.090173446 -0.031639285
-0.07910534 0.090057209 -0.031926617
-0.078151897 0.082790054 -0.023570774
-0.077310815 0.08303874 -0.024447057
-0.076569453 0.083105572 -0.02503074
-0.076024272 0.082809627 -0.025032597
-0.075187273 0.083057813 -0.025905501
-0.074739702 0.082580864 -0.025617231
-0.074582785 0.081557892 -0.02445635
-0.074037179 0.081261724 -0.024458207
-0.073491581 0.080965556 -0.024460068
-0.072849527 0.080851756 -0.024752945
-0.07230413 0.080555692 -0.024754804
-0.072047018 0.079711422 -0.023882933
-0.071597025 0.079231896 -0.023593102
-0.071050785 0.078935377 -0.023594962
-0.07088773 0.077903986 -0.022427801
-0.070724167 0.076869391 -0.021257017
-0.070176229 0.076571964 -0.021258885
-0.069628298 0.076274522 -0.02126075
-0.064688332 0.065190226 -0.010871129
-0.063095003 0.066991001 -0.014177893
-0.062074199 0.067640983 -0.015672594
-0.061522197 0.067341343 -0.015674476
-0.061249308 0.066471323 -0.01478137
-0.060882669 0.065790094 -0.01418543
-0.060515448 0.065107793 -0.013588554
-0.061174374 0.062307682 -0.0096755186
-0.10299232 0.10858087 -0.037676226
-0.10245665 0.1082901 -0.037678052
-0.10213256 0.10766156 -0.037117817
-0.10180798 0.10703207 -0.036556728
-0.1012715 0.10674085 -0.036558557
-0.10073501 0.10644963 -0.036560383
-0.099883221 0.10666695 -0.037406255
-0.098928876 0.10705277 -0.038530484
-0.0977697 0.10777418 -0.040209547
-0.097028837 0.10782088 -0.040768754
-0.096289098 0.10786752 -0.041327115
-0.095756061 0.10757817 -0.041328929
-0.095120385 0.10745694 -0.041608702
-0.094485201 0.10733581 -0.041888263
-0.093850479 0.10721476 -0.042167615
-0.093114533 0.10726176 -0.042723868
-0.092481047 0.10714089 -0.043002591
-0.091848053 0.1070201 -0.043281101
-0.091215521 0.10689941 -0.043559402
-0.090684079 0.10661093 -0.043561209
-0.090152644 0.10632246 -0.043563023
-0.089721486 0.10586575 -0.043288346
-0.08918985 0.10557716 -0.043290157
-0.088658214 0.10528857 -0.043291964
-0.088026889 0.10516854 -0.043570261
-0.087396033 0.10504858 -0.043848351
-0.086765654 0.10492872 -0.044126227
-0.086234622 0.10464045 -0.044128038
-0.085703574 0.1043522 -0.044129845
-0.085271083 0.1038951 -0.043855585
-0.084739834 0.10360672 -0.043857399
-0.084208593 0.10331835 -0.043859206
-0.08397162 0.10252173 -0.043031573
-0.083439775 0.10223304 -0.043033388
-0.083005771 0.10177445 -0.042758305
-0.082571432 0.10131552 -0.042483013
-0.082136773 0.10085624 -0.042207513
-0.081604332 0.10056722 -0.042209327
-0.081169143 0.10010749 -0.041933622
-0.081317909 0.098619014 -0.039986927
-0.080783859 0.098329119 -0.039988741
-0.08054173 0.097522616 -0.039152332
-0.082825862 0.088449217 -0.026353814
-0.081486158 0.089581512 -0.028664589
-0.080056369 0.090883724 -0.03124707
-0.078831322 0.091825373 -0.033243813
-0.078195065 0.091708817 -0.033529762
-0.078142568 0.090534478 -0.032108851
-0.079160966 0.082233712 -0.021124996
-0.078217648 0.082665883 -0.022299258
-0.077375524 0.082915001 -0.023178034
-0.076535344 0.083163545 -0.024054771
-0.07608743 0.082685716 -0.023765231
-0.075541615 0.082389437 -0.023767089
-0.074898526 0.08227504 -0.024060346
-0.074352928 0.081978865 -0.024062207
-0.073807321 0.081682704 -0.024064064
-0.073261715 0.081386529 -0.024065923
-0.072619759 0.081272565 -0.024358952
-0.07226672 0.080611728 -0.023778245
-0.072491631 0.078849748 -0.021440815
-0.071944125 0.078552544 -0.02144268
-0.071012348 0.078990243 -0.022615995
-0.070657246 0.078326106 -0.022032587
-0.070493326 0.077292159 -0.020861192
-0.070136994 0.076625161 -0.02027506
-0.06520015 0.065536961 -0.0098636821
-0.063980818 0.066575237 -0.011976398
-0.062861994 0.067417756 -0.013778347
-0.061934952 0.067877322 -0.014975577
-0.061662443 0.067007586 -0.014081302
-0.061202742 0.06651707 -0.013783999
-0.061583176 0.064303353 -0.010781094
-0.10394119 0.10827308 -0.035597794
-0.10276665 0.10899419 -0.037289258
-0.10223097 0.1087034 -0.037291083
-0.10201254 0.10790627 -0.036449056
-0.10158196 0.10744601 -0.036169171
-0.10104548 0.10715479 -0.036170997
-0.10029848 0.10720219 -0.03673603
-0.099343136 0.10758733 -0.037861701
-0.098494872 0.10780288 -0.038704176
-0.097337544 0.10852205 -0.040381573
-0.096597582 0.10856815 -0.040940229
-0.096064538 0.1082788 -0.040942043
-0.09542875 0.10815731 -0.041221961
-0.094793439 0.10803591 -0.041501671
-0.094158605 0.10791461 -0.041781165
-0.093626164 0.10762559 -0.041782979
-0.092890389 0.10767227 -0.042339526
-0.092256986 0.10755125 -0.04261839
-0.091523074 0.10759794 -0.043173678
-0.090890907 0.10747708 -0.043451916
-0.090359665 0.10718869 -0.043453727
-0.089928746 0.1067325 -0.04317911
-0.089397319 0.10644402 -0.04318092
-0.088865876 0.10615554 -0.043182731
-0.088334434 0.10586706 -0.043184545
-0.087703466 0.10574684 -0.043462772
-0.087072976 0.10562672 -0.043740798
-0.086541936 0.10533845 -0.043742608
-0.086010896 0.10505019 -0.043744415
-0.085479856 0.10476194 -0.043746222
-0.084948815 0.10447367 -0.043748032
-0.084417775 0.1041854 -0.043749839
-0.083886735 0.10389714 -0.043751653
-0.083453551 0.10343987 -0.043477248
-0.083020039 0.10298225 -0.043202646
-0.082586206 0.1025243 -0.042927831
-0.082152039 0.102066 -0.042652808
-0.081814967 0.10143727 -0.042100333
-0.081380017 0.10097803 -0.041824691
-0.080944747 0.10051847 -0.041548841
-0.080606252 0.099887617 -0.040994696
-0.080558866 0.098741181 -0.039602946
-0.080219187 0.098107316 -0.039045863
-0.079684727 0.097817197 -0.039047685
-0.080709405 0.09475299 -0.034547664
-0.083943971 0.087730899 -0.023634609
-0.081899293 0.09011656 -0.027983027
-0.080566034 0.091240712 -0.030282618
-0.079143211 0.092533752 -0.032852646
-0.078409493 0.092592523 -0.033422794
-0.077870965 0.092300192 -0.033424631
-0.077623464 0.091480009 -0.032573674
-0.078930214 0.082656316 -0.020729322
-0.077987261 0.083087839 -0.021904197
-0.077145398 0.083336465 -0.02278343
-0.076501198 0.083221622 -0.023077296
-0.075955167 0.082925215 -0.023079155
-0.075214282 0.082992181 -0.023664344
-0.074571565 0.082877599 -0.023957528
-0.074026167 0.082581542 -0.023959387
-0.073480777 0.082285486 -0.023961244
-0.07303185 0.081807502 -0.023671778
-0.072486252 0.081511334 -0.023673637
-0.072422028 0.080302261 -0.022215502
-0.071165949 0.078677781 -0.021049026
-0.070618436 0.078380577 -0.021050893
-0.070358366 0.077530503 -0.020171326
-0.064965941 0.065965891 -0.0094620902
-0.064125545 0.066238821 -0.010370519
-0.063004613 0.067083456 -0.012179074
-0.062356863 0.066973358 -0.012481244
-0.062084101 0.066100173 -0.011581575
-0.062468905 0.063879579 -0.0085628899
-0.10425189 0.10897878 -0.03520811
-0.10297053 0.10986632 -0.037181474
-0.10243507 0.10957565 -0.037183296
-0.10211109 0.10894833 -0.036622893
-0.10189243 0.10815117 -0.035779789
-0.10135594 0.10785995 -0.035781614
-0.10071404 0.10773783 -0.036065299
-0.099652901 0.10829089 -0.037473205
-0.098908655 0.10833733 -0.038035966
-0.098165534 0.10838369 -0.038597878
-0.097216308 0.10876588 -0.039717332
-0.096373007 0.10897943 -0.040555157
-0.095737107 0.10885768 -0.04083522
-0.095101684 0.10873602 -0.041115075
-0.094466738 0.10861445 -0.041394718
-0.093934298 0.10832542 -0.041396528
-0.093300037 0.10820407 -0.041675959
-0.092666246 0.10808279 -0.04195518
-0.091931738 0.1081291 -0.04251118
-0.091299176 0.10800798 -0.042789768
-0.090667099 0.10788696 -0.043068148
-0.090135857 0.1075986 -0.043069962
-0.089704864 0.10714254 -0.0427952
-0.089173421 0.10685407 -0.042797007
-0.088542134 0.10673347 -0.04307539
-0.0880109 0.1064451 -0.043077197
-0.087380297 0.10632472 -0.043355364
-0.08684925 0.10603645 -0.043357175
-0.086318217 0.10574819 -0.043358982
-0.08578717 0.10545993 -0.043360796
-0.085256137 0.10517167 -0.043362603
-0.084725089 0.1048834 -0.043364409
-0.084194057 0.10459514 -0.04336622
-0.083663009 0.10430688 -0.043368027
-0.083131976 0.10401861 -0.043369837
-0.082698502 0.10356139 -0.043095294
-0.082264706 0.10310382 -0.042820543
-0.081733271 0.10281534 -0.042822354
-0.0814934 0.10201786 -0.041993238
-0.08115571 0.10138886 -0.041440055
-0.080817506 0.1007589 -0.040886045
-0.080284663 0.10046966 -0.040887855
-0.079945542 0.099838547 -0.040333003
-0.079994023 0.09851969 -0.03865977
-0.07945957 0.098229572 -0.038661595
-0.07892511 0.097939454 -0.038663413
-0.079945154 0.094875984 -0.034161054
-0.079798207 0.093885034 -0.033028256
-0.079650819 0.092891052 -0.031891998
-0.078916162 0.092949592 -0.032463316
-0.078279875 0.092832603 -0.03274956
-0.077741139 0.09254016 -0.032751396
-0.077202402 0.092247725 -0.032753233
-0.078699462 0.083078928 -0.020333651
-0.077756867 0.083509788 -0.021509137
-0.077111676 0.083394736 -0.021803835
-0.076369032 0.083461419 -0.02239069
-0.075725131 0.083346516 -0.022684706
-0.0751791 0.083050117 -0.022686565
-0.074633069 0.082753725 -0.022688426
-0.073796399 0.083002359 -0.023565393
-0.073251009 0.082706302 -0.023567252
-0.072801992 0.082228474 -0.023277633
-0.07235264 0.081750289 -0.02298779
-0.07219173 0.080724053 -0.021820595
-0.071675442 0.079030007 -0.020063939
-0.071031362 0.078916475 -0.020359769
-0.07048364 0.078619152 -0.020361636
-0.070319258 0.077584468 -0.019186277
-0.064922027 0.066011511 -0.0084546348
-0.064365678 0.065709502 -0.00845653
-0.1045626 0.10968447 -0.034818433
-0.10338664 0.11040237 -0.036511675
-0.10274494 0.11027947 -0.036794648
-0.10231529 0.10982081 -0.036515322
-0.1019911 0.10919344 -0.0359542
-0.10156067 0.10873383 -0.035674237
-0.10112993 0.10827389 -0.035394058
-0.10027769 0.10848913 -0.036241256
-0.099218182 0.10904034 -0.037647761
-0.098579034 0.10891815 -0.037929881
-0.09794037 0.10879606 -0.038211785
-0.097302191 0.10867406 -0.038493477
-0.096148446 0.10939071 -0.040170085
-0.09540993 0.10943612 -0.04072848
-0.094774865 0.10931429 -0.041008271
-0.094140284 0.10919255 -0.041287847
-0.093608037 0.10890364 -0.041289657
-0.093075804 0.10861472 -0.041291468
-0.092340715 0.10866065 -0.041848179
-0.091707766 0.10853929 -0.042127125
-0.091075286 0.10841803 -0.042405859
-0.090443291 0.10829685 -0.042684384
-0.089912049 0.10800848 -0.04268619
-0.089380816 0.10772011 -0.042688005
-0.088849574 0.10743174 -0.042689811
-0.088218652 0.10731098 -0.042968124
-0.087687604 0.10702272 -0.042969935
-0.087156571 0.10673446 -0.042971745
-0.086625524 0.10644619 -0.042973552
-0.086094491 0.10615793 -0.042975362
-0.085563444 0.10586967 -0.042977169
-0.085032411 0.1055814 -0.04297898
-0.084501371 0.10529314 -0.04298079
-0.083970331 0.10500488 -0.042982597
-0.083341479 0.10488508 -0.043260697
-0.08281064 0.10459692 -0.043262504
-0.08237721 0.10414009 -0.042988021
-0.08184617 0.10385182 -0.042989835
-0.081509374 0.10322539 -0.042438444
-0.081269257 0.10242837 -0.041608896
-0.08083427 0.10196968 -0.041333169
-0.08059302 0.10117003 -0.040501118
-0.080060177 0.10088079 -0.040502932
-0.079624079 0.10042083 -0.04022637
-0.079187647 0.099960528 -0.039949607
-0.079137556 0.098813787 -0.03855535
-0.078603305 0.098523781 -0.038557172
-0.078069046 0.098233774 -0.03855899
-0.077727355 0.09759929 -0.038000908
-0.079032801 0.094008215 -0.032641057
-0.078494273 0.093715891 -0.03264289
-0.078150161 0.093072869 -0.032075819
-0.077514179 0.092955843 -0.032362211
-0.07707227 0.09248776 -0.032079492
-0.079115681 0.083616853 -0.019641981
-0.07846871 0.083501533 -0.019937977
-0.077822253 0.083386317 -0.020233741
-0.0769796 0.083634891 -0.021115938
-0.07623677 0.083701402 -0.021703552
-0.075592667 0.083586365 -0.021997947
-0.075046435 0.083289854 -0.02199981
-0.074792109 0.082447454 -0.021123391
-0.07356663 0.083423175 -0.023171403
-0.073021233 0.083127111 -0.02317326
-0.072572134 0.082649454 -0.02288349
-0.072508082 0.08144258 -0.021423824
-0.07089667 0.079155348 -0.019669978
-0.070636719 0.078305513 -0.01878812
-0.10605609 0.10853189 -0.031306062
-0.10401616 0.11060316 -0.035277694
-0.10294876 0.11115079 -0.036687091
-0.1024135 0.11086023 -0.036688916
-0.10208962 0.11023412 -0.036128353
-0.10176526 0.10960706 -0.035566941
-0.10133475 0.10914762 -0.035286829
-0.1006931 0.10902506 -0.035570592
-0.099842012 0.10923929 -0.036416948
-0.099201895 0.10911688 -0.036699854
-0.098353788 0.10933068 -0.037543643
-0.097715206 0.10920843 -0.037825696
-0.097077116 0.10908628 -0.038107533
-0.095923871 0.10980199 -0.03978502
-0.095082991 0.11001414 -0.040621817
-0.094448298 0.10989213 -0.040901542
-0.093814075 0.10977022 -0.041181054
-0.093180329 0.1096484 -0.041460354
-0.092547067 0.10952667 -0.041739445
-0.09201543 0.10923808 -0.041741256
-0.091382839 0.10911655 -0.042020138
-0.090750724 0.10899512 -0.042298809
-0.090219483 0.10870674 -0.042300615
-0.089588046 0.10858551 -0.042579077
-0.089057006 0.10829724 -0.042580888
-0.088227019 0.10851028 -0.043411396
-0.08779595 0.10805526 -0.043137178
-0.087265313 0.10776721 -0.043138985
-0.086734675 0.10747916 -0.043140791
-0.086204022 0.10719112 -0.043142602
-0.085673384 0.10690308 -0.043144405
-0.085142747 0.10661503 -0.043146215
-0.084612109 0.10632698 -0.043148022
-0.084179521 0.10587097 -0.042873599
-0.083648682 0.10558282 -0.042875409
-0.083020188 0.10546284 -0.043153446
-0.082489543 0.10517479 -0.043155249
-0.082056157 0.10471835 -0.042880833
-0.081622444 0.10426156 -0.042606208
-0.081091411 0.1039733 -0.042608015
-0.081045114 0.10283887 -0.041224547
-0.080610037 0.10238034 -0.040948678
-0.080077797 0.10209143 -0.040950492
-0.079738908 0.10146225 -0.040396318
-0.079206266 0.10117311 -0.040398128
-0.078673624 0.10088398 -0.040399943
-0.078333423 0.10025341 -0.039844938
-0.07837823 0.098935999 -0.038171228
-0.077651463 0.09898942 -0.038732398
-0.077117614 0.098699622 -0.038734216
-0.076583765 0.098409839 -0.038736034
-0.077975951 0.094655626 -0.033106036
-0.077825941 0.093663953 -0.031971198
-0.077287212 0.093371511 -0.03197303
-0.076845221 0.092903599 -0.031690158
-0.078291051 0.085128546 -0.021008434
-0.077941589 0.084469162 -0.020423783
-0.077591583 0.083808757 -0.019838223
-0.077241033 0.083147325 -0.019251755
-0.1057211 0.1091173 -0.031201694
-0.10379023 0.11101694 -0.034890283
-0.10293528 0.11122899 -0.035737731
-0.10239962 0.11093821 -0.03573956
-0.10196968 0.11047962 -0.035459723
-0.1015394 0.11002068 -0.035179675
-0.10110882 0.1095614 -0.034899417
-0.10057253 0.10927029 -0.034901246
-0.099826172 0.10931607 -0.035467025
-0.09908095 0.10936178 -0.036031947
-0.098441124 0.10923932 -0.036314998
-0.09749005 0.1096208 -0.037439607
-0.096852034 0.10949849 -0.037721589
-0.095905162 0.10987885 -0.038841944
-0.094961129 0.11025807 -0.039958924
-0.094224066 0.1103028 -0.040517051
-0.093589924 0.11018073 -0.040796712
-0.092956267 0.11005875 -0.041076157
-0.092323087 0.10993686 -0.041355394
-0.091791451 0.10964828 -0.041357201
-0.091158941 0.1095266 -0.041636225
-0.090526916 0.109405 -0.041915044
-0.08989536 0.10928351 -0.042193644
-0.089164324 0.10932883 -0.042748421
-0.08853399 0.1092075 -0.043026399
-0.088003546 0.10891955 -0.043028206
-0.087473109 0.10863162 -0.043030012
-0.086942665 0.10834368 -0.043031819
-0.086313412 0.10822276 -0.043309584
-0.085980475 0.10760055 -0.042759266
-0.085449837 0.1073125 -0.042761073
-0.084919192 0.10702446 -0.042762883
-0.084388547 0.10673641 -0.042764686
-0.083857909 0.10644837 -0.042766497
-0.083327271 0.10616031 -0.042768303
-0.082796633 0.10587227 -0.04277011
-0.082265988 0.10558422 -0.042771921
-0.081832521 0.10512793 -0.042497355
-0.081301682 0.10483977 -0.042499166
-0.080867685 0.10438304 -0.042224396
-0.080530152 0.10375699 -0.041672431
-0.080288924 0.10296058 -0.040842015
-0.079756886 0.10267176 -0.040843826
-0.079321325 0.10221318 -0.040567815
-0.078885444 0.10175424 -0.040291596
-0.078449227 0.10129495 -0.040015165
-0.077916585 0.10100582 -0.040016979
-0.077479832 0.10054608 -0.039740343
-0.07742656 0.099401325 -0.038346745
-0.076892711 0.099111535 -0.038348563
-0.076454587 0.098650031 -0.038070668
-0.076591231 0.097153738 -0.036108553
-0.07721141 0.094778672 -0.032719281
-0.07715711 0.093611985 -0.031298991
-0.077783935 0.09120515 -0.027865501
-0.077962145 0.085731171 -0.020906597
-0.077415697 0.085434541 -0.020908458
-0.077164024 0.084594309 -0.020030431
-0.071976162 0.072963767 -0.0090381317
-0.071421124 0.072662473 -0.0090400223
-0.10798911 0.10676111 -0.02564227
-0.10549404 0.10953314 -0.030812364
-0.10345788 0.11159831 -0.034785111
-0.1029218 0.11130731 -0.034786936
-0.10238572 0.1110163 -0.034788761
-0.10195544 0.11055739 -0.034508355
-0.10152485 0.11009815 -0.034227733
-0.10098836 0.10980693 -0.034229562
-0.1003466 0.10968407 -0.034513831
-0.099600412 0.10972954 -0.035079911
-0.098959908 0.10960685 -0.035363536
-0.098319896 0.10948426 -0.035646949
-0.09768036 0.10936176 -0.035930149
-0.096730433 0.10974306 -0.037055336
-0.095783368 0.1101232 -0.038177121
-0.094941698 0.11033522 -0.039016694
-0.094204091 0.11037991 -0.039575953
-0.093467601 0.11042455 -0.040134378
-0.092732206 0.11046911 -0.040691957
-0.092099115 0.11034707 -0.040971335
-0.091567472 0.11005848 -0.040973146
-0.090935051 0.10993665 -0.041252315
-0.090303108 0.1098149 -0.041531272
-0.089571491 0.10985983 -0.042086754
-0.088940762 0.10973826 -0.042365085
-0.088310517 0.10961677 -0.042643208
-0.087780073 0.10932883 -0.042645015
-0.087249637 0.10904089 -0.042646825
-0.086719193 0.10875295 -0.042648628
-0.086090021 0.10863188 -0.042926539
-0.085559778 0.10834405 -0.042928346
-0.085029535 0.10805622 -0.042930152
-0.084597424 0.1076012 -0.042655855
-0.084066987 0.10731326 -0.042657662
-0.083634354 0.1068578 -0.04238316
-0.083103716 0.10656974 -0.042384967
-0.082573071 0.1062817 -0.042386778
-0.082042433 0.10599365 -0.042388584
-0.081608877 0.10553751 -0.042113878
-0.081078038 0.10524936 -0.042115685
-0.080643959 0.10479277 -0.041840773
-0.080306269 0.10416704 -0.041288521
-0.079774827 0.10387857 -0.041290328
-0.07943622 0.10325167 -0.040737245
-0.079000704 0.10279347 -0.040461294
-0.078661129 0.10216505 -0.03990696
-0.078128688 0.10187603 -0.03990877
-0.077692181 0.1014168 -0.039632197
-0.077351242 0.10078663 -0.039076611
-0.07720165 0.099813223 -0.037961096
-0.076763652 0.099351987 -0.037683051
-0.076229595 0.099062093 -0.037684869
-0.075886637 0.098428473 -0.037126336
-0.076406166 0.096237347 -0.034030989
-0.077220857 0.093501873 -0.030053332
-0.077555843 0.091622896 -0.027474381
-0.078423157 0.084885173 -0.018454501
-0.077087253 0.086036809 -0.0208067
-0.076443061 0.085920922 -0.021101329
-0.072199516 0.073881567 -0.008937547
-0.071547136 0.073768631 -0.0092414645
-0.071187295 0.073090732 -0.0086390618
-0.10494446 0.11045551 -0.031277955
-0.10333836 0.1118445 -0.034115463
-0.10280208 0.1115534 -0.034117289
-0.1023718 0.11109452 -0.033836521
-0.1021532 0.11029889 -0.032989271
-0.10161611 0.11000735 -0.0329911
-0.101079 0.1097158 -0.032992933
-0.10022586 0.10992964 -0.03384383
-0.099584386 0.10980675 -0.034128249
-0.098838776 0.10985211 -0.034694619
-0.098198563 0.10972939 -0.034978393
-0.097454846 0.10977477 -0.035543472
-0.096608728 0.10998782 -0.036388576
-0.095970809 0.10986531 -0.036671065
-0.094819643 0.11057954 -0.038352437
-0.094184093 0.11045714 -0.03863344
-0.093447052 0.11050175 -0.039192989
-0.092711128 0.11054629 -0.039751697
-0.092077561 0.11042413 -0.040031642
-0.091545515 0.11013532 -0.040033456
-0.090811856 0.11018009 -0.040590901
-0.090179726 0.1100582 -0.040870216
-0.089447916 0.11010298 -0.041426402
-0.088817 0.10998126 -0.041705087
-0.08818657 0.10985965 -0.04198356
-0.087457359 0.1099045 -0.042538073
-0.086828142 0.10978304 -0.042815927
-0.086396873 0.10932884 -0.042541686
-0.08586663 0.109041 -0.042543497
-0.085336387 0.10875317 -0.0425453
-0.084707968 0.10863215 -0.042823147
-0.084275901 0.10817751 -0.042548914
-0.083843514 0.10772254 -0.042274471
-0.083410807 0.10726722 -0.041999828
-0.082880154 0.10697917 -0.042001635
-0.082349516 0.10669113 -0.042003442
-0.081818879 0.10640308 -0.042005248
-0.08138524 0.1059471 -0.0417304
-0.080854401 0.10565894 -0.041732207
-0.080420233 0.1052025 -0.041457154
-0.079985745 0.10474573 -0.041181888
-0.079550937 0.10428861 -0.040906418
-0.079115793 0.10383114 -0.040630743
-0.078680322 0.10337333 -0.040354855
-0.078436814 0.10257588 -0.039522324
-0.077904373 0.10228685 -0.039524138
-0.077563711 0.10165758 -0.038968679
-0.077222541 0.10102736 -0.038412377
-0.076976746 0.10022513 -0.037575439
-0.076538652 0.099764057 -0.037297253
-0.076195933 0.099130966 -0.036738422
-0.075661473 0.09884084 -0.036740247
-0.076083966 0.096824758 -0.033926062
-0.077381968 0.093215697 -0.028518131
-0.077327743 0.092040643 -0.027083257
-0.07938499 0.083120741 -0.014503834
-0.07685712 0.086458273 -0.020412099
-0.076017551 0.086702712 -0.021292044
-0.075374521 0.086586691 -0.021586144
-0.07317362 0.074724153 -0.008230539
-0.072031856 0.075548492 -0.01004342
-0.071575493 0.075060554 -0.0097440667
-0.071216092 0.074384466 -0.0091427676
-0.10471766 0.11087087 -0.03088907
-0.10343165 0.11175574 -0.032879174
-0.10289476 0.11146429 -0.032881003
-0.10267659 0.11066849 -0.032032017
-0.10224528 0.11020823 -0.031749811
-0.10170756 0.10991634 -0.031751644
-0.10116985 0.10962446 -0.031753477
-0.10010502 0.1101754 -0.033173315
-0.099463359 0.11005236 -0.033458099
-0.098717555 0.11009756 -0.034025192
-0.098077141 0.10997469 -0.034309331
-0.097229347 0.11018776 -0.035156794
-0.096486941 0.11023276 -0.035721313
-0.095745653 0.11027769 -0.036284976
-0.094800077 0.11065702 -0.037407923
-0.094061747 0.11070152 -0.037969038
-0.093426473 0.11057908 -0.038250182
-0.092791677 0.11045672 -0.038531117
-0.092157371 0.11033446 -0.03881184
-0.091624722 0.11004533 -0.038813651
-0.090890177 0.11009021 -0.039372649
-0.090056241 0.1103017 -0.040208656
-0.089324258 0.1103463 -0.040765554
-0.088693157 0.11022446 -0.041044585
-0.088062525 0.11010269 -0.041323412
-0.087333135 0.11014738 -0.041878637
-0.086604834 0.110192 -0.04243302
-0.086173482 0.10973796 -0.042158641
-0.085643239 0.10945012 -0.042160448
-0.085112996 0.10916229 -0.042162254
-0.084484667 0.10904112 -0.042440243
-0.083954617 0.10875339 -0.04244205
-0.083620042 0.10813181 -0.041891284
-0.083089598 0.10784387 -0.041893091
-0.082559161 0.10755594 -0.041894898
-0.082125962 0.10710055 -0.041620109
-0.081595324 0.10681251 -0.041621916
-0.081161603 0.10635668 -0.041346919
-0.080630757 0.10606853 -0.041348729
-0.080196515 0.10561224 -0.041073527
-0.079761937 0.10515562 -0.040798124
-0.079230703 0.10486725 -0.040799931
-0.078891814 0.10424134 -0.040246684
-0.078552417 0.10361449 -0.039692603
-0.0782125 0.10298669 -0.039137691
-0.07777603 0.10252787 -0.038860824
-0.077435151 0.10189854 -0.038304653
-0.076997891 0.1014388 -0.03802716
-0.076656036 0.10080793 -0.03746973
-0.07631366 0.10017611 -0.036911454
-0.075970769 0.099543333 -0.036352333
-0.075531796 0.099081472 -0.036073368
-0.075857952 0.097238705 -0.033538505
-0.077154301 0.093632646 -0.028127758
-0.077294454 0.092105083 -0.026115604
-0.077314958 0.085614577 -0.01795961
-0.076374501 0.08604151 -0.019138776
-0.075144753 0.087007508 -0.02119215
-0.074793667 0.086351104 -0.020608995
-0.07466583 0.077292167 -0.0093325721
-0.074111879 0.076991469 -0.009334459
-0.073852859 0.076129735 -0.0084307287
-0.073200084 0.076015964 -0.0087347273
-0.072352305 0.076276325 -0.009641517
-0.071118161 0.077281132 -0.01174658
-0.070276134 0.077539004 -0.012646301
-0.070982538 0.074812219 -0.0087422803
-0.10449087 0.11128622 -0.030500183
-0.10373869 0.11133064 -0.031071473
-0.10330745 0.11087029 -0.030788686
-0.1028759 0.11040957 -0.030505683
-0.10233756 0.11011735 -0.030507518
-0.10169309 0.10999396 -0.030794187
-0.1010491 0.10987066 -0.031080633
-0.10051119 0.10957867 -0.031082466
-0.099342234 0.11029816 -0.032787442
-0.098596238 0.1103432 -0.033355258
-0.097851381 0.11038816 -0.033922214
-0.097107649 0.11043306 -0.034488309
-0.096365049 0.11047788 -0.035053544
-0.095623575 0.11052264 -0.035617925
-0.094883226 0.11056734 -0.036181454
-0.094041608 0.11077909 -0.037024237
-0.093405865 0.11065651 -0.037305955
-0.092770606 0.11053404 -0.037587456
-0.092034355 0.1105786 -0.038148008
-0.091400333 0.1104563 -0.038428877
-0.090665944 0.11050087 -0.038988158
-0.089932673 0.11054538 -0.039546601
-0.089300625 0.11042331 -0.039826412
-0.088469431 0.11063419 -0.040660966
-0.087938391 0.11034592 -0.040662773
-0.087208815 0.11039045 -0.041218702
-0.086480342 0.1104349 -0.041773789
-0.085950099 0.11014707 -0.041775595
-0.085419856 0.10985924 -0.041777402
-0.084889613 0.10957142 -0.041779209
-0.084261358 0.10945008 -0.042057343
-0.083731316 0.10916236 -0.042059146
-0.083201274 0.10887463 -0.042060953
-0.082671233 0.10858691 -0.042062759
-0.082335688 0.10796521 -0.041511707
-0.081902415 0.10750999 -0.041236773
-0.081371762 0.10722194 -0.041238584
-0.080937967 0.10676627 -0.040963445
-0.08040712 0.10647811 -0.040965252
-0.079876281 0.10618996 -0.040967058
-0.079441749 0.10573372 -0.040691715
-0.079006895 0.10527714 -0.040416166
-0.078667842 0.10465154 -0.039862629
-0.078328267 0.10402499 -0.039308261
-0.077892177 0.10356691 -0.039031669
-0.077647589 0.10276908 -0.038197014
-0.077210575 0.10230983 -0.037919581
-0.076773241 0.10185023 -0.037641946
-0.076431215 0.10121968 -0.037084222
-0.076280057 0.10024583 -0.035964426
-0.075745605 0.099955708 -0.035966244
-0.075402021 0.099322289 -0.035405982
-0.075631931 0.097652644 -0.033150949
-0.076829597 0.094225101 -0.028024366
-0.077066183 0.09252315 -0.025724182
-0.078370653 0.083671421 -0.013710352
-0.076536484 0.085739866 -0.017565804
-0.075597234 0.086166605 -0.018745577
-0.075050369 0.085869744 -0.01874744
-0.074432455 0.077719592 -0.0089323977
-0.073878504 0.077418886 -0.0089342855
-0.073619209 0.076557659 -0.008030084
-0.073064603 0.07625661 -0.0080319727
-0.072510004 0.075955555 -0.0080338623
-0.070885524 0.077707216 -0.011347658
-0.070043765 0.077964574 -0.012247846
-0.10620572 0.10865349 -0.02494416
-0.10404689 0.11090393 -0.029256873
-0.10350795 0.11061137 -0.029258709
-0.102969 0.11031882 -0.029260544
-0.10232355 0.1101952 -0.029548015
-0.10167859 0.1100717 -0.029835267
-0.10103412 0.10994827 -0.030122299
-0.10028456 0.1099937 -0.030693876
-0.099746652 0.10970172 -0.030695708
-0.098684117 0.11025272 -0.032118104
-0.097834021 0.11046588 -0.032969672
-0.096882068 0.11084621 -0.034101486
-0.096139632 0.11089072 -0.034667015
-0.095501408 0.11076779 -0.034950372
-0.094760865 0.11081231 -0.035514615
-0.094123885 0.11068954 -0.035797328
-0.093283139 0.11090116 -0.036640547
-0.092647679 0.11077854 -0.03692241
-0.091911256 0.11082294 -0.037483674
-0.091277033 0.1107005 -0.037764896
-0.090441719 0.11091154 -0.038603667
-0.089809008 0.11078924 -0.038884044
-0.089176774 0.11066703 -0.039164212
-0.088545017 0.11054492 -0.039444167
-0.087714665 0.11075566 -0.040279154
-0.087084405 0.11063371 -0.040558267
