# .PCD v0.7 - Point Cloud Data file format
VERSION 0.7
FIELDS x y z
SIZE 4 4 4
TYPE F F F
COUNT 1 1 1
WIDTH 1305
HEIGHT 1
VIEWPOINT 0 0 0 1 0 0 0
POINTS 1305
DATA ascii
-0.085548691 0.020864956 -0.13509759
-0.086100161 0.020788172 -0.13487066
-0.086388059 0.020313142 -0.13523354
-0.086763553 0.019971129 -0.13539965
-0.087138802 0.019629329 -0.13556568
-0.087601997 0.019419944 -0.13553543
-0.088153586 0.019342778 -0.13530885
-0.088616937 0.019133329 -0.13527858
-0.089080282 0.018923881 -0.13524832
-0.0894548 0.018582411 -0.13541438
-0.089651421 0.01797767 -0.13597243
-0.089847662 0.017374074 -0.13652943
-0.090221114 0.017033849 -0.13669473
-0.090683289 0.016824927 -0.13666454
-0.091234632 0.016747111 -0.13643882
-0.091607653 0.016407084 -0.13660415
-0.092069827 0.016198162 -0.13657396
-0.092532009 0.01598924 -0.13654377
-0.093173735 0.016042087 -0.13612232
-0.093636207 0.015833035 -0.1360921
-0.09409868 0.015623981 -0.13606189
-0.094651446 0.015545738 -0.13583584
-0.09511406 0.01533662 -0.13580562
-0.095667325 0.015258261 -0.13557942
-0.096311845 0.015310714 -0.13515684
-0.096683845 0.014970602 -0.13532282
-0.097146749 0.014761351 -0.13529259
-0.097609662 0.0145521 -0.13526236
-0.098164059 0.014473444 -0.13503584
-0.099178165 0.015049042 -0.13382527
-0.099642098 0.014839327 -0.13379496
-0.10010603 0.014629613 -0.13376465
-0.10056996 0.014419898 -0.13373435
-0.10094132 0.014079422 -0.1339011
-0.10131244 0.013739162 -0.13406776
-0.10177609 0.01352958 -0.13403748
-0.1018685 0.012798904 -0.13479382
-0.10233155 0.012589587 -0.13476358
-0.040751755 0.044793345 -0.13314547
-0.040405605 0.04303227 -0.13529299
-0.040871158 0.042821825 -0.13526259
-0.041781422 0.043454625 -0.13404591
-0.04254587 0.043807466 -0.13322204
-0.04301291 0.04359635 -0.13319153
-0.043180745 0.042822078 -0.1339545
-0.042975433 0.041349962 -0.13570207
-0.043217037 0.040721096 -0.13626215
-0.043830961 0.04078991 -0.13583826
-0.044295922 0.040579733 -0.13580787
-0.044760883 0.040369548 -0.13577752
-0.045225844 0.040159371 -0.13574713
-0.045690808 0.03994919 -0.13571675
-0.046155769 0.039739009 -0.13568638
-0.046620734 0.039528828 -0.135656
-0.047010012 0.039179642 -0.13582252
-0.04732332 0.038691904 -0.13618559
-0.047712006 0.038343314 -0.13635179
-0.048100449 0.037994947 -0.13651788
-0.048564676 0.037785098 -0.13648754
-0.049028903 0.037575249 -0.13645723
-0.049569499 0.03750366 -0.13623044
-0.050263721 0.037708849 -0.13560997
-0.050805397 0.037637208 -0.13538262
-0.051424522 0.03770411 -0.13495789
-0.051812526 0.037355278 -0.13512476
-0.052277636 0.03714503 -0.13509437
-0.052742749 0.036934786 -0.13506398
-0.053207859 0.036724538 -0.13503359
-0.053750813 0.036652543 -0.13480593
-0.054294109 0.036580499 -0.13457812
-0.054759514 0.036370117 -0.13454771
-0.054990064 0.035745587 -0.13510923
-0.055533409 0.035673302 -0.13488168
-0.05615573 0.035738979 -0.1344565
-0.056621134 0.0355286 -0.1344261
-0.057086539 0.035318218 -0.13439569
-0.057551946 0.035107836 -0.13436529
-0.057938129 0.034759719 -0.13453238
-0.058324069 0.034411822 -0.13469936
-0.058789182 0.034201577 -0.13466898
-0.059254289 0.033991329 -0.13463859
-0.059719399 0.033781081 -0.13460819
-0.060104653 0.033433605 -0.13477512
-0.060489658 0.033086348 -0.13494191
-0.060714472 0.032465726 -0.13550235
-0.061258946 0.032392494 -0.13527519
-0.061964501 0.032592885 -0.13465361
-0.062510058 0.032519601 -0.13442591
-0.063055962 0.032446269 -0.13419804
-0.063521221 0.032235958 -0.13416764
-0.06398648 0.032025646 -0.13413726
-0.064370498 0.031678613 -0.13430434
-0.064591765 0.031058937 -0.13486575
-0.064975113 0.030712653 -0.13503243
-0.065439627 0.03050267 -0.13500208
-0.065904155 0.03029269 -0.13497172
-0.066368677 0.03008271 -0.13494137
-0.06691511 0.030008702 -0.13471398
-0.067379773 0.029798655 -0.13468362
-0.067844443 0.029588608 -0.13465326
-0.068309113 0.029378561 -0.13462292
-0.068773784 0.029168515 -0.13459255
-0.069155797 0.028822828 -0.13475931
-0.069703117 0.028748421 -0.13453184
-0.07008484 0.028402867 -0.13469861
-0.070549361 0.028192887 -0.13466826
-0.071097121 0.028118279 -0.13444076
-0.071561791 0.027908232 -0.13441041
-0.072026461 0.027698185 -0.13438006
-0.072407447 0.027352965 -0.13454688
-0.072788194 0.027007964 -0.13471359
-0.073168702 0.026663179 -0.1348802
-0.073632926 0.026453333 -0.13484988
-0.074013047 0.026108833 -0.13501638
-0.074477121 0.025899054 -0.13498607
-0.074856855 0.025554838 -0.13515247
-0.075405285 0.02547949 -0.13492543
-0.075869359 0.025269711 -0.13489512
-0.076333441 0.025059929 -0.13486479
-0.076797523 0.024850147 -0.13483447
-0.077261604 0.024640366 -0.13480416
-0.077810965 0.024564706 -0.13457692
-0.078275189 0.024354858 -0.13454661
-0.078653842 0.024011023 -0.13471322
-0.079117917 0.023801243 -0.13468289
-0.079581998 0.023591461 -0.13465257
-0.08004608 0.02338168 -0.13462225
-0.080510162 0.023171898 -0.13459194
-0.080974244 0.022962118 -0.13456161
-0.081438325 0.022752337 -0.13453129
-0.081815846 0.022409117 -0.13469785
-0.082106553 0.021932913 -0.13506097
-0.082570188 0.021723332 -0.13503067
-0.083207652 0.021779973 -0.13460693
-0.083671585 0.02157026 -0.13457663
-0.083961114 0.021094583 -0.13493979
-0.084337488 0.020752214 -0.13510606
-0.084713623 0.020410061 -0.13527223
-0.085176975 0.020200612 -0.13524197
-0.085640319 0.019991161 -0.13521171
-0.086015925 0.019649357 -0.13537778
-0.086391285 0.019307768 -0.13554376
-0.086854346 0.019098449 -0.1355135
-0.087405525 0.019021206 -0.135287
-0.087868728 0.018811824 -0.13525674
-0.088420399 0.018734463 -0.13503008
-0.088795125 0.018393055 -0.13519621
-0.089258321 0.018183673 -0.13516596
-0.089632675 0.017842546 -0.135332
-0.089740284 0.017107351 -0.13608576
-0.090025067 0.01663599 -0.13644685
-0.090487249 0.016427066 -0.13641666
-0.090860382 0.016087245 -0.13658194
-0.091233283 0.01574764 -0.13674712
-0.091605939 0.015408247 -0.1369122
-0.092157058 0.01533006 -0.13668677
-0.092708521 0.015251824 -0.1364612
-0.093170546 0.015042967 -0.13643101
-0.093812481 0.015095201 -0.13600965
-0.094455212 0.015147503 -0.13558772
-0.094917834 0.014938383 -0.13555752
-0.095380455 0.014729263 -0.13552728
-0.095933802 0.014650714 -0.13530099
-0.096305683 0.014311025 -0.13546684
-0.096768305 0.014101906 -0.13543661
-0.097230919 0.013892786 -0.1354064
-0.097967654 0.014074831 -0.13478749
-0.098797582 0.014387956 -0.13397053
-0.099445313 0.014439957 -0.13354614
-0.10000152 0.014361093 -0.13331859
-0.10037318 0.014020528 -0.13348553
-0.1007446 0.013680179 -0.13365236
-0.10093077 0.013079321 -0.13421278
-0.10130154 0.012739698 -0.13437918
-0.10157948 0.012270349 -0.13474192
-0.1020424 0.012061098 -0.13471167
-0.03952238 0.042421311 -0.13566531
-0.03998749 0.042211063 -0.13563493
-0.0404526 0.042000815 -0.13560456
-0.041287161 0.042491082 -0.13458741
-0.042124383 0.042982906 -0.13356704
-0.042590972 0.042771991 -0.13353656
-0.042535901 0.041579269 -0.13489126
-0.042629518 0.040670533 -0.13584653
-0.043019939 0.040321093 -0.13601294
-0.043484606 0.040111046 -0.13598257
-0.043949276 0.039901 -0.13595222
-0.044413943 0.039690953 -0.13592187
-0.045028627 0.039759114 -0.13549776
-0.045493588 0.03954893 -0.13546738
-0.045958549 0.039338753 -0.13543701
-0.046197239 0.038711995 -0.13599715
-0.046661761 0.038502015 -0.13596681
-0.046673264 0.037462041 -0.13711426
-0.047136907 0.037252456 -0.13708396
-0.047751945 0.037318923 -0.13666154
-0.048367769 0.037385475 -0.13623857
-0.048831992 0.037175629 -0.13620825
-0.049372528 0.037103914 -0.13598138
-0.049989961 0.037170388 -0.13555759
-0.05053138 0.037098601 -0.1353303
-0.051073138 0.03702677 -0.13510287
-0.051538102 0.03681659 -0.1350725
-0.052003063 0.036606412 -0.13504213
-0.052390639 0.03625815 -0.13520883
-0.052932993 0.036186051 -0.13498136
-0.05332027 0.035837922 -0.13514811
-0.053707305 0.035490014 -0.13531475
-0.054016266 0.035004772 -0.13567801
-0.054636642 0.03506992 -0.13525403
-0.055179533 0.034997467 -0.13502665
-0.055722766 0.034924969 -0.13479912
-0.056266345 0.034852423 -0.13457146
-0.056810267 0.034779835 -0.13434364
-0.057275523 0.034569524 -0.13431324
-0.057582613 0.034084253 -0.13467762
-0.057968423 0.033736788 -0.13484445
-0.058433238 0.033526674 -0.13481408
-0.058977503 0.03345371 -0.13458648
-0.059522115 0.033380698 -0.13435875
-0.059668347 0.032622561 -0.1351171
-0.060053129 0.032275889 -0.13528363
-0.060517501 0.032065976 -0.1352533
-0.060981877 0.031856064 -0.13522296
-0.061526433 0.031782638 -0.13499571
-0.062232241 0.031982448 -0.13437386
-0.062777884 0.03190897 -0.13414606
-0.063242994 0.031698726 -0.13411568
-0.063708104 0.031488478 -0.13408528
-0.064173214 0.03127823 -0.1340549
-0.064313553 0.030522756 -0.13481364
-0.064778075 0.030312777 -0.13478328
-0.065242596 0.030102795 -0.13475294
-0.065707117 0.029892815 -0.13472259
-0.066171639 0.029682834 -0.13469225
-0.06663616 0.029472854 -0.1346619
-0.067100674 0.029262874 -0.13463154
-0.067565203 0.029052893 -0.13460121
-0.068029724 0.028842913 -0.13457087
-0.068494245 0.028632933 -0.13454051
-0.068876229 0.028287524 -0.13470723
-0.069257975 0.027942337 -0.13487384
-0.069887809 0.02800299 -0.13444948
-0.070352323 0.027793011 -0.13441913
-0.070816852 0.027583031 -0.13438877
-0.071281374 0.027373051 -0.13435844
-0.071745887 0.02716307 -0.13432808
-0.072043337 0.026683252 -0.13469188
-0.072423957 0.026338682 -0.13485843
-0.072720692 0.02585984 -0.13522154
-0.073352121 0.025919119 -0.13479781
-0.073732197 0.025574898 -0.13496427
-0.074196137 0.025365183 -0.13493398
-0.07466007 0.02515547 -0.13490365
-0.075208433 0.025079994 -0.13467653
-0.075672515 0.024870215 -0.13464621
-0.076136597 0.024660433 -0.13461588
-0.076600678 0.02445065 -0.13458557
-0.07706476 0.02424087 -0.13455525
-0.077528842 0.02403109 -0.13452493
-0.077992909 0.023821307 -0.13449463
-0.07837154 0.02347775 -0.1346612
-0.078664415 0.023000872 -0.13502431
-0.078871436 0.022391371 -0.13558325
-0.079420276 0.022315143 -0.13535671
-0.07988362 0.022105694 -0.13532643
-0.080518976 0.022162542 -0.13490315
-0.080982611 0.021952961 -0.13487287
-0.081446253 0.021743378 -0.13484257
-0.081909895 0.021533797 -0.13481228
-0.082373537 0.021324214 -0.134782
-0.083097793 0.021513715 -0.13416111
-0.0834748 0.021170888 -0.1343278
-0.083764449 0.020695467 -0.13469113
-0.084140889 0.020353224 -0.13485748
-0.084342659 0.019746426 -0.13541642
-0.08480572 0.019537108 -0.13538615
-0.085268766 0.01932779 -0.1353559
-0.085731827 0.019118473 -0.13532566
-0.086019509 0.018645246 -0.13568766
-0.086482272 0.018436059 -0.13565744
-0.087032981 0.018358655 -0.13543113
-0.087584049 0.018281203 -0.13520466
-0.088135451 0.018203702 -0.13497804
-0.088598646 0.017994316 -0.13494779
-0.089061849 0.017784933 -0.13491753
-0.089436255 0.017443931 -0.13508365
-0.08954411 0.016709242 -0.13583773
-0.089917779 0.016369117 -0.13600332
-0.09029121 0.016029207 -0.13616878
-0.090575479 0.015558822 -0.13652956
-0.090859383 0.015089027 -0.1368899
-0.091320977 0.014880368 -0.13685976
-0.091871828 0.01480204 -0.13663438
-0.09233357 0.014593315 -0.13660422
-0.092884913 0.014514871 -0.13637869
-0.093436599 0.014436377 -0.13615303
-0.093988642 0.014357834 -0.13592723
-0.094721608 0.014540147 -0.13530938
-0.095184229 0.014331028 -0.13527918
-0.095646843 0.014121908 -0.13524894
-0.096109457 0.013912789 -0.13521872
-0.096481174 0.01357344 -0.13538453
-0.096852645 0.013234304 -0.13555026
-0.097497307 0.013285431 -0.13512805
-0.098417498 0.013727704 -0.13411564
-0.099248528 0.014040587 -0.13329732
-0.09980467 0.013961596 -0.13306969
-0.10017639 0.013621159 -0.13323671
-0.10027088 0.012889906 -0.13399455
-0.10064187 0.012550344 -0.13416101
-0.10101262 0.012210996 -0.13432738
-0.10129066 0.011742127 -0.13469002
-0.10184605 0.01166261 -0.1344634
-0.038859986 0.042231176 -0.13544625
-0.039178651 0.0417412 -0.13580978
-0.039716814 0.041670837 -0.13558252
-0.040181775 0.041460659 -0.13555214
-0.040720426 0.041390188 -0.1353247
-0.041555416 0.041879483 -0.13430713
-0.042021263 0.041668903 -0.13427669
-0.041967545 0.040480517 -0.1356276
-0.042358179 0.040131137 -0.13579407
-0.042600136 0.039504021 -0.13635354
-0.043064363 0.039294176 -0.1363232
-0.043454152 0.038945615 -0.13648924
-0.043918233 0.038735833 -0.13645892
-0.044531818 0.038803302 -0.13603571
-0.044996195 0.038593389 -0.13600536
-0.045385495 0.038244937 -0.13617155
-0.045324523 0.037068248 -0.13751358
-0.045712743 0.036721162 -0.13767888
-0.046175797 0.036511846 -0.13764864
-0.046864823 0.036715508 -0.13703127
-0.047403883 0.036643758 -0.13680503
-0.048246812 0.037123989 -0.135793
-0.04863508 0.036776006 -0.13595927
-0.049099311 0.036566157 -0.13592894
-0.049716372 0.036632273 -0.13550524
-0.050180893 0.036422294 -0.13547491
-0.050722204 0.036350291 -0.13524766
-0.05126385 0.036278248 -0.13502029
-0.051805843 0.036206152 -0.13479276
-0.052193481 0.03585802 -0.13495955
-0.052580871 0.035510104 -0.13512623
-0.053045541 0.035300057 -0.13509586
-0.053354923 0.034814939 -0.13545929
-0.053819295 0.034605023 -0.13542895
-0.054283667 0.034395106 -0.13539863
-0.054826103 0.034322489 -0.13517143
-0.055368882 0.034249824 -0.1349441
-0.055833548 0.034039777 -0.13491374
-0.056376819 0.033967 -0.13468625
-0.056841634 0.033756886 -0.13465588
-0.05714871 0.033272587 -0.1350197
-0.057534285 0.032925714 -0.13518627
-0.058077753 0.032852627 -0.134959
-0.05854227 0.032642648 -0.13492864
-0.059006792 0.032432668 -0.13489832
-0.059232872 0.031813055 -0.13545844
-0.05969695 0.031603277 -0.13542812
-0.060161028 0.031393494 -0.13539779
-0.060784906 0.031456314 -0.13497391
-0.061329395 0.031382762 -0.13474658
-0.061874233 0.031309165 -0.1345191
-0.062499985 0.031372014 -0.13409412
-0.06304571 0.031298343 -0.13386622
-0.06351082 0.031088095 -0.13383584
-0.063813865 0.030605182 -0.13420039
-0.064116523 0.030122882 -0.1345645
-0.064581037 0.0299129 -0.13453415
-0.065045565 0.029702919 -0.1345038
-0.065428644 0.029357174 -0.13467053
-0.065811478 0.029011648 -0.13483717
-0.066275701 0.028801801 -0.13480683
-0.066739932 0.028591953 -0.13477649
-0.067204155 0.028382106 -0.13474616
-0.067668378 0.028172258 -0.13471584
-0.068132617 0.027962411 -0.13468552
-0.068514474 0.027617434 -0.13485208
-0.068978548 0.027407654 -0.13482176
-0.06944263 0.027197871 -0.13479145
-0.070072383 0.027258035 -0.13436715
-0.070619814 0.027183155 -0.13413964
-0.070917971 0.026703326 -0.13450356
-0.071298949 0.026358748 -0.13467017
-0.071596399 0.025879893 -0.1350334
-0.072060183 0.025670245 -0.1350031
-0.072523966 0.025460597 -0.1349728
-0.073071487 0.025385244 -0.13474576
-0.073535413 0.025175529 -0.13471545
-0.074083425 0.025100062 -0.13448827
-0.074463286 0.0247561 -0.13465483
-0.075011589 0.024680499 -0.13442762
-0.07547567 0.024470719 -0.13439731
-0.075939752 0.024260936 -0.13436699
-0.076403834 0.024051156 -0.13433667
-0.076782949 0.023707526 -0.13450329
-0.077331983 0.023631593 -0.13427603
-0.077625617 0.023154465 -0.13463952
-0.078004114 0.022811336 -0.13480593
-0.078211762 0.022202017 -0.1353651
-0.078589603 0.021859622 -0.13553107
-0.079052649 0.021650303 -0.13550082
-0.079687081 0.021706829 -0.13507792
-0.080150425 0.02149738 -0.13504766
-0.080613777 0.021287929 -0.13501738
-0.081163332 0.021211328 -0.13479057
-0.081713237 0.021134678 -0.13456362
-0.082436867 0.021324001 -0.13394253
-0.082553811 0.02058278 -0.13469973
-0.083017305 0.020373264 -0.13466945
-0.083480798 0.020163748 -0.13463917
-0.083944291 0.019954232 -0.13460889
-0.084146246 0.019347811 -0.13516806
-0.084522083 0.019006426 -0.13533404
-0.084985003 0.018797174 -0.13530383
-0.08536046 0.01845607 -0.1354697
-0.085735671 0.01811518 -0.1356355
-0.086285979 0.018037699 -0.13540924
-0.086748742 0.017828515 -0.13537902
-0.087299541 0.017750917 -0.13515261
-0.087850682 0.017673271 -0.13492605
-0.088402174 0.017595578 -0.13469936
-0.088776797 0.017254638 -0.13486555
-0.089151166 0.016913911 -0.13503164
-0.089259356 0.01618012 -0.13578555
-0.089632988 0.01584027 -0.13595109
-0.090006396 0.015500634 -0.13611652
-0.090201989 0.014900327 -0.1366725
-0.090397224 0.014301151 -0.13722743
-0.090858385 0.014092689 -0.1371973
-0.091319546 0.013884228 -0.13716717
-0.091691598 0.013545954 -0.13733186
-0.092331186 0.013597132 -0.13691197
-0.092971571 0.013648375 -0.13649157
-0.093702659 0.013829787 -0.13587505
-0.094254777 0.013751053 -0.13564916
-0.094987996 0.013932792 -0.13503104
-0.095450617 0.013723672 -0.13500084
-0.095913231 0.013514553 -0.13497061
-0.096103489 0.012915366 -0.13552839
-0.096565671 0.012706445 -0.13549818
-0.097118877 0.012627332 -0.1352721
-0.098129384 0.013198523 -0.13406388
-0.09877608 0.013249723 -0.13363995
-0.099607825 0.0135621 -0.13282079
-0.099703066 0.012830691 -0.13357939
-0.099982195 0.012360987 -0.13394286
-0.10026097 0.011891877 -0.13430585
-0.10063161 0.011552952 -0.13447206
-0.10109437 0.011343766 -0.13444184
-0.10155713 0.011134581 -0.13441159
-0.037906315 0.041481908 -0.13601477
-0.038443733 0.041411512 -0.13578771
-0.03898149 0.04134107 -0.1355605
-0.039446309 0.041130956 -0.13553013
-0.039911121 0.040920842 -0.13549978
-0.040375937 0.040710729 -0.13546939
-0.040840752 0.040500615 -0.13543902
-0.041157965 0.040012047 -0.13580236
-0.041548602 0.039663035 -0.13596866
-0.041865066 0.039175462 -0.1363313
-0.042255111 0.038827047 -0.13649729
-0.042793225 0.038755897 -0.13627066
-0.043034464 0.038130879 -0.13682896
-0.043498103 0.037921298 -0.13679868
-0.043961745 0.037711717 -0.13676839
-0.044425383 0.037502132 -0.13673808
-0.044515636 0.036603563 -0.13768654
-0.044829227 0.036119454 -0.13804695
-0.045291845 0.035910331 -0.13801673
-0.045979381 0.036113232 -0.13740028
-0.046668224 0.036316518 -0.13678269
-0.047434025 0.03665809 -0.13596748
-0.048049837 0.03672424 -0.13554394
-0.048438177 0.036376379 -0.1357103
-0.0489024 0.036166534 -0.13567996
-0.049366627 0.035956688 -0.13564962
-0.049830854 0.035746843 -0.13561931
-0.050525103 0.035950292 -0.13499844
-0.051066693 0.035878118 -0.13477097
-0.051531505 0.035668004 -0.13474062
-0.05191911 0.035320148 -0.13490738
-0.052306466 0.034972515 -0.13507402
-0.052693576 0.034625102 -0.13524057
-0.05308044 0.034277909 -0.13540702
-0.05354467 0.034068063 -0.13537669
-0.054086696 0.03399536 -0.13514957
-0.054629069 0.033922616 -0.13492228
-0.05509359 0.033712633 -0.13489196
-0.055558108 0.03350265 -0.1348616
-0.056022633 0.03329267 -0.13483125
-0.056408565 0.032945789 -0.13499787
-0.056872942 0.032735877 -0.13496755
-0.057258483 0.032389279 -0.13513407
-0.05780169 0.032316048 -0.13490686
-0.058266059 0.032106131 -0.13487652
-0.058730435 0.031896222 -0.1348462
-0.058877438 0.031141158 -0.13560273
-0.059341226 0.030931508 -0.13557242
-0.059805013 0.03072186 -0.13554212
-0.060587931 0.031056564 -0.13472484
-0.061052304 0.030846652 -0.1346945
-0.061596882 0.030772908 -0.13446708
-0.062061407 0.030562928 -0.13443676
-0.062525928 0.030352946 -0.1344064
-0.063071139 0.030279022 -0.13417882
-0.06353581 0.030068975 -0.13414846
-0.063919485 0.029723005 -0.13431536
-0.064302929 0.029377252 -0.13448215
-0.064767294 0.029167339 -0.13445181
-0.065150335 0.028821873 -0.13461851
-0.065533139 0.028476626 -0.13478509
-0.065997221 0.028266843 -0.13475476
-0.066379637 0.027921882 -0.13492127
-0.067007251 0.027982483 -0.1344972
-0.067307502 0.027502451 -0.13486063
-0.067935698 0.027562788 -0.13443653
-0.068235368 0.027083021 -0.13480002
-0.068781704 0.027008157 -0.13457286
-0.069245778 0.026798377 -0.13454254
-0.069792613 0.026723398 -0.13431524
-0.070339784 0.026648372 -0.13408777
-0.070472099 0.025899949 -0.13484524
-0.070935883 0.0256903 -0.13481496
-0.071316496 0.025346369 -0.13498132
-0.071780138 0.025136787 -0.13495104
-0.072243772 0.024927204 -0.13492075
-0.072791032 0.024851706 -0.13469376
-0.073338628 0.024776159 -0.13446663
-0.073886581 0.024700565 -0.13423936
-0.074266501 0.02435673 -0.13440602
-0.074730434 0.024147015 -0.13437571
-0.075025611 0.023669712 -0.13473901
-0.075658299 0.023727585 -0.13431509
-0.076122232 0.023517869 -0.13428479
-0.076416537 0.023040963 -0.13464813
-0.076880172 0.022831382 -0.13461785
-0.077258781 0.022488464 -0.13478422
-0.077637151 0.022145763 -0.1349505
-0.07801529 0.021803278 -0.13511665
-0.078393191 0.021461008 -0.13528271
-0.078856237 0.02125169 -0.13525248
-0.079404891 0.021175127 -0.13502587
-0.079868093 0.020965742 -0.13499562
-0.080331288 0.020756358 -0.13496536
-0.080880582 0.020679615 -0.13473859
-0.081516571 0.020735562 -0.13431495
-0.081980206 0.020525981 -0.13428468
-0.082357205 0.02018379 -0.13445115
-0.082820699 0.019974275 -0.13442087
-0.083284192 0.019764757 -0.13439059
-0.083573699 0.019290674 -0.13475354
-0.084036894 0.019081291 -0.13472328
-0.084325738 0.018607939 -0.13508579
-0.084701411 0.018266894 -0.13525175
-0.085164167 0.018057708 -0.13522151
-0.08562693 0.017848521 -0.13519129
-0.086089693 0.017639337 -0.13516106
-0.086552449 0.017430151 -0.13513081
-0.087015212 0.017220967 -0.13510059
-0.087566093 0.017143179 -0.13487409
-0.088029005 0.016933927 -0.13484386
-0.088491909 0.016724676 -0.13481361
-0.088689312 0.016122075 -0.13537188
-0.088974766 0.015651332 -0.1357334
-0.089348383 0.015311756 -0.13589889
-0.089721754 0.014972394 -0.13606431
-0.089828983 0.01424266 -0.13681525
-0.090201616 0.013904168 -0.13698009
-0.09066277 0.013695707 -0.13694997
-0.091123939 0.013487244 -0.13691984
-0.09149605 0.013149096 -0.1370846
-0.092135511 0.013200023 -0.13666457
-0.092596814 0.012991496 -0.13663442
-0.09323737 0.013042358 -0.13621384
-0.093878746 0.013093282 -0.13579272
-0.094520919 0.013144271 -0.13537107
-0.095254384 0.013325437 -0.13475272
-0.095717005 0.013116317 -0.13472249
-0.095907457 0.012517506 -0.13528049
-0.096369632 0.012308585 -0.1352503
-0.097104847 0.012488958 -0.13463183
-0.097841471 0.012669674 -0.13401218
-0.098396115 0.0125904 -0.1337852
-0.099042967 0.012641217 -0.13336109
-0.09932252 0.012171633 -0.13372469
-0.099693686 0.011832404 -0.13389118
-0.10015674 0.011623087 -0.13386093
-0.10043532 0.011154589 -0.13422386
-0.10080578 0.010816004 -0.13439004
-0.10108369 0.010348458 -0.1347523
-0.037317302 0.041431602 -0.1355992
-0.037709281 0.041082032 -0.13576564
-0.038319521 0.041151054 -0.13534157
-0.038930528 0.041220162 -0.13491696
-0.039395638 0.041009914 -0.13488656
-0.039713964 0.040520713 -0.13525048
-0.040105309 0.040171321 -0.13541707
-0.040496405 0.03982215 -0.13558355
-0.04096093 0.03961217 -0.13555321
-0.041277863 0.039124474 -0.13591623
-0.041594394 0.038637388 -0.13627878
-0.041910525 0.038150929 -0.13664088
-0.042374164 0.037941344 -0.13661058
-0.042689603 0.037455626 -0.13697225
-0.043078773 0.037108306 -0.13713777
-0.04339347 0.036623575 -0.13749875
-0.043782052 0.036276843 -0.13766396
-0.044244811 0.036067661 -0.13763371
-0.044707574 0.035858475 -0.13760349
-0.045170337 0.035649288 -0.13757326
-0.046008132 0.036127042 -0.13656437
-0.046773098 0.036468372 -0.13574891
-0.047237176 0.036258589 -0.13571858
-0.047852866 0.036324494 -0.13529488
-0.048165336 0.035839029 -0.13565794
-0.048705488 0.035766911 -0.13543099
-0.049169715 0.035557065 -0.13540065
-0.049633946 0.035347216 -0.13537033
-0.050328005 0.035550289 -0.13474922
-0.050792675 0.035340242 -0.13471887
-0.051257342 0.035130195 -0.13468851
-0.051567856 0.034645181 -0.13505219
-0.052032229 0.034435265 -0.13502185
-0.052419305 0.034088131 -0.13518837
-0.052883532 0.033878285 -0.13515803
-0.053347759 0.033668436 -0.13512769
-0.053889725 0.03359561 -0.1349005
-0.054354098 0.033385698 -0.13487016
-0.054818474 0.033175781 -0.13483983
-0.05528285 0.032965869 -0.13480949
-0.055747218 0.032755956 -0.13477916
-0.056211594 0.03254604 -0.13474883
-0.056597348 0.032199506 -0.13491543
-0.056982856 0.031853188 -0.1350819
-0.057604719 0.031916298 -0.1346578
-0.058069088 0.031706385 -0.13462748
-0.058533464 0.031496473 -0.13459714
-0.058680713 0.030741915 -0.13535397
-0.059144501 0.030532267 -0.13532369
-0.059608288 0.030322619 -0.13529338
-0.060311161 0.030520726 -0.13467279
-0.060855333 0.030446902 -0.13444544
-0.061319705 0.030236987 -0.13441512
-0.0613834 0.029348476 -0.13536873
-0.061686825 0.028868189 -0.13573118
-0.062150173 0.028658738 -0.1357009
-0.062774315 0.028719731 -0.13527787
-0.063237958 0.028510148 -0.13524757
-0.0637016 0.028300567 -0.13521728
-0.064327121 0.028361371 -0.13479367
-0.064791054 0.028151656 -0.13476336
-0.065336294 0.028077129 -0.13453618
-0.065800376 0.027867347 -0.13450587
-0.066182852 0.02752251 -0.13467243
-0.06672854 0.027447784 -0.13444524
-0.067028873 0.026968243 -0.1348086
-0.067656696 0.027028223 -0.1343846
-0.06795644 0.026548946 -0.134748
-0.068584852 0.026608661 -0.13432395
-0.069048934 0.02639888 -0.13429365
-0.069513015 0.026189098 -0.13426332
-0.069977097 0.025979316 -0.134233
-0.070275374 0.025500704 -0.13459651
-0.070656195 0.025156833 -0.13476294
-0.071119837 0.024947252 -0.13473265
-0.071583472 0.024737669 -0.13470235
-0.072047114 0.024528088 -0.13467208
-0.072510757 0.024318505 -0.13464178
-0.073058099 0.024242813 -0.13441472
-0.073521882 0.024033165 -0.13438441
-0.073901676 0.023689758 -0.13455091
-0.074281231 0.023346569 -0.13471732
-0.074744724 0.023137052 -0.13468704
-0.075208217 0.022927538 -0.13465676
-0.07567171 0.022718022 -0.13462648
-0.076135203 0.022508506 -0.1345962
-0.076513924 0.022165796 -0.13476253
-0.07706219 0.022089474 -0.13453564
-0.077440619 0.021746896 -0.13470198
-0.077818818 0.021404536 -0.13486822
-0.078282021 0.021195155 -0.13483797
-0.078574494 0.020720469 -0.13520041
-0.079208419 0.020776387 -0.13477746
-0.07958594 0.020434443 -0.13494362
-0.080048986 0.020225124 -0.13491336
-0.080598019 0.020148236 -0.13468668
-0.081147403 0.0200713 -0.13445982
-0.081610739 0.019861851 -0.13442956
-0.082074091 0.0196524 -0.13439929
-0.082537435 0.019442951 -0.13436902
-0.083000787 0.019233501 -0.13433875
-0.08337722 0.018891936 -0.13450511
-0.083840422 0.018682553 -0.13447486
-0.084216475 0.018341269 -0.13464111
-0.084679537 0.018131951 -0.13461086
-0.084967881 0.017659346 -0.13497333
-0.085430644 0.017450161 -0.13494308
-0.0858934 0.017240975 -0.13491286
-0.086268455 0.016900469 -0.13507883
-0.086731069 0.016691349 -0.1350486
-0.087281689 0.016613418 -0.13482216
-0.087744452 0.016404234 -0.13479193
-0.088030681 0.015933016 -0.13515405
-0.088316552 0.015462395 -0.13551572
-0.08869037 0.015122878 -0.13568127
-0.08906395 0.014783575 -0.13584673
-0.089525834 0.014574784 -0.13581657
-0.089899033 0.014235761 -0.13598193
-0.090094611 0.013637025 -0.1365377
-0.090733595 0.013688292 -0.13611706
-0.091017224 0.013219969 -0.13647741
-0.091478534 0.013011442 -0.13644728
-0.091939844 0.012802915 -0.13641715
-0.092401147 0.012594387 -0.13638701
-0.092951991 0.012515388 -0.13616164
-0.093503185 0.01243634 -0.13593611
-0.094144717 0.012486883 -0.13551481
-0.094787054 0.012537491 -0.135093
-0.095430203 0.012588161 -0.13467064
-0.095892675 0.012379108 -0.13464043
-0.096355148 0.012170054 -0.13461022
-0.096999697 0.012220526 -0.13418728
-0.097462453 0.01201134 -0.13415706
-0.098108105 0.012061744 -0.13373359
-0.098662838 0.011982277 -0.13350652
-0.09903422 0.011643108 -0.13367309
-0.099497266 0.011433791 -0.13364282
-0.099960327 0.011224473 -0.13361257
-0.10033118 0.010885651 -0.13377906
-0.10051738 0.010288573 -0.1343383
-0.10061114 0.0095638214 -0.13509238
-0.10107303 0.009355031 -0.1350622
-0.037410572 0.041590337 -0.1345613
-0.037657544 0.040961038 -0.13512264
-0.038414095 0.041309483 -0.134303
-0.038879499 0.041099101 -0.13427261
-0.039198354 0.040609531 -0.13463712
-0.039590109 0.04025989 -0.13480401
-0.039908215 0.039771322 -0.13516785
-0.040372882 0.039561272 -0.1351375
-0.040763892 0.039212294 -0.13530408
-0.041228417 0.039002314 -0.13527372
-0.041250225 0.03796139 -0.1364225
-0.041713864 0.037751809 -0.13639221
-0.042177506 0.037542228 -0.13636193
-0.042493068 0.037056763 -0.13672373
-0.042734209 0.036434337 -0.13728072
-0.043122996 0.036087669 -0.13744599
-0.043585762 0.035878483 -0.13741575
-0.044048522 0.035669301 -0.13738553
-0.044511285 0.035460114 -0.1373553
-0.045273148 0.035800066 -0.13654211
-0.046112172 0.036278658 -0.13553032
-0.046576247 0.036068879 -0.1355
-0.047040328 0.035859097 -0.13546968
-0.047655895 0.035924744 -0.13504583
-0.047968492 0.035439532 -0.13540904
-0.04858464 0.035504915 -0.13498515
-0.049125269 0.035432648 -0.13475783
-0.04958979 0.035222668 -0.13472748
-0.050130907 0.035150286 -0.13450001
-0.050442133 0.03466526 -0.13486379
-0.050906509 0.034455344 -0.13483347
-0.051140204 0.03383401 -0.13539349
-0.051604137 0.033624299 -0.13536318
-0.052222397 0.033688512 -0.13493937
-0.052686624 0.033478662 -0.13490906
-0.053150848 0.033268813 -0.13487872
-0.053692754 0.033195861 -0.13465144
-0.054157127 0.032985948 -0.13462111
-0.054543529 0.032639273 -0.13478775
-0.055007756 0.032429423 -0.13475741
-0.055315603 0.031946577 -0.13512072
-0.055857848 0.031873256 -0.13489364
-0.056400437 0.031799883 -0.13466644
-0.056864668 0.031590033 -0.1346361
-0.057407744 0.031516548 -0.13440876
-0.057714168 0.031034131 -0.13477238
-0.05817825 0.030824348 -0.13474205
-0.058483992 0.030342672 -0.13510524
-0.058947776 0.030133022 -0.13507494
-0.059411563 0.029923374 -0.13504463
-0.059954934 0.029849432 -0.13481763
-0.060339138 0.029504078 -0.13498405
-0.0607231 0.029158941 -0.13515034
-0.061106816 0.028814023 -0.13531657
-0.06149029 0.028469324 -0.13548267
-0.061953638 0.028259875 -0.13545239
-0.062416986 0.028050425 -0.13542213
-0.0630413 0.028111031 -0.1349989
-0.063504934 0.027901448 -0.13496861
-0.06404943 0.02782689 -0.13474165
-0.064513214 0.027617242 -0.13471135
-0.064977005 0.027407592 -0.13468105
-0.065440789 0.027197944 -0.13465075
-0.065904573 0.026988296 -0.13462046
-0.06645 0.026913425 -0.1343933
-0.066832148 0.026569 -0.13455985
-0.067377865 0.026493996 -0.13433269
-0.067759722 0.026149703 -0.13449925
-0.068305731 0.026074568 -0.13427208
-0.068852089 0.025999384 -0.13404474
-0.069316171 0.025789602 -0.13401441
-0.069614865 0.025311109 -0.13437806
-0.069995895 0.024967298 -0.13454457
-0.070459537 0.024757717 -0.13451429
-0.070923172 0.024548134 -0.13448399
-0.071386807 0.024338553 -0.1344537
-0.071850456 0.02412897 -0.13442342
-0.072314091 0.023919389 -0.13439313
-0.072777733 0.023709806 -0.13436283
-0.073241368 0.023500223 -0.13433255
-0.073369816 0.022756957 -0.13508853
-0.07383287 0.02254764 -0.13505827
-0.07421197 0.022205243 -0.1352243
-0.074758977 0.022129003 -0.13499777
-0.075222038 0.021919686 -0.13496754
-0.075685091 0.02171037 -0.13493727
-0.076148137 0.021501051 -0.13490702
-0.076695941 0.021424565 -0.13468033
-0.077159144 0.021215184 -0.13465007
-0.077622347 0.021005798 -0.1346198
-0.078000359 0.020663783 -0.13478602
-0.078207754 0.020057263 -0.13534448
-0.078841045 0.020112729 -0.13492189
-0.079218447 0.019771209 -0.13508791
-0.07976687 0.019694226 -0.13486141
-0.080315635 0.019617194 -0.13463476
-0.080950856 0.019672435 -0.13421132
-0.081327952 0.019330731 -0.13437772
-0.081877559 0.019253535 -0.13415079
-0.08225435 0.018911963 -0.1343172
-0.082630903 0.018570606 -0.1344835
-0.083093956 0.018361289 -0.13445327
-0.083557017 0.018151972 -0.134423
-0.084020063 0.017942654 -0.13439277
-0.084483124 0.017733337 -0.1343625
-0.084858857 0.01739246 -0.13452874
-0.085234351 0.017051799 -0.1346949
-0.085697114 0.016842613 -0.13466465
-0.086159877 0.016633429 -0.13463444
-0.086534843 0.016293114 -0.13480049
-0.08682175 0.015822116 -0.13516249
-0.087108292 0.015351711 -0.13552403
-0.087570317 0.015142855 -0.13549384
-0.088032357 0.014933999 -0.13546367
-0.088494383 0.014725143 -0.13543347
-0.088779695 0.014255726 -0.13579461
-0.089329921 0.014177175 -0.13556884
-0.08970318 0.013838277 -0.1357343
-0.090164922 0.013629553 -0.13570413
-0.090537801 0.013290933 -0.13586947
-0.090999395 0.013082274 -0.13583933
-0.091460995 0.012873616 -0.13580917
-0.091833353 0.012535341 -0.13597444
-0.092205472 0.012197279 -0.1361396
-0.092756256 0.012118154 -0.13591413
-0.093128093 0.011780224 -0.13607933
-0.09367916 0.011700969 -0.13585386
-0.094500817 0.012010016 -0.13504107
-0.095053189 0.01193071 -0.13481493
-0.095696509 0.011980998 -0.1343924
-0.096158981 0.011771944 -0.13436218
-0.096712403 0.011692487 -0.13413559
-0.097175017 0.011483367 -0.13410538
-0.09772893 0.011403793 -0.13387863
-0.098283194 0.011324169 -0.13365175
-0.098837808 0.011244495 -0.13342473
-0.099300854 0.011035178 -0.13339448
-0.099763915 0.01082586 -0.13336423
-0.10022697 0.010616543 -0.13333398
-0.10032121 0.0098904632 -0.13409027
-0.10041522 0.0091662128 -0.13484465
-0.10087711 0.0089574223 -0.13481449
-0.037285868 0.041329604 -0.13411421
-0.037678488 0.040979512 -0.13428137
-0.038216684 0.040908843 -0.13405339
-0.038682088 0.040698465 -0.134023
-0.03900107 0.040209148 -0.13438767
-0.039319646 0.039720453 -0.13475187
-0.039564569 0.039093532 -0.1353125
-0.040028941 0.038883619 -0.13528216
-0.040346362 0.038396534 -0.13564524
-0.040810443 0.038186751 -0.13561492
-0.041053563 0.037562273 -0.13617383
-0.041369841 0.037076797 -0.13653576
-0.041833185 0.036867347 -0.1365055
-0.041853793 0.035833091 -0.13764903
-0.042242493 0.03548694 -0.13781404
-0.042778738 0.035414983 -0.13758861
-0.043389473 0.035480123 -0.13716756
-0.044000983 0.035545345 -0.13674599
-0.044613265 0.03561065 -0.13632387
-0.045376219 0.035951223 -0.13550836
-0.045915321 0.035879161 -0.13528141
-0.046379402 0.035669379 -0.1352511
-0.046843484 0.0354596 -0.13522078
-0.047458924 0.035524994 -0.13479677
-0.04777164 0.035040036 -0.13516015
-0.048387669 0.035105169 -0.13473611
-0.048928238 0.035032772 -0.1345087
-0.049392756 0.034822792 -0.13447835
-0.04962796 0.034200914 -0.13503888
-0.050092041 0.033991132 -0.13500856
-0.050556123 0.03378135 -0.13497823
-0.050943419 0.033434644 -0.13514465
-0.051407352 0.033224929 -0.13511434
-0.052025486 0.033288889 -0.1346904
-0.052489713 0.033079039 -0.13466008
-0.052876521 0.032732446 -0.13482665
-0.053340603 0.032522663 -0.13479632
-0.053882394 0.032449499 -0.13456909
-0.054346621 0.032239649 -0.13453877
-0.054732841 0.03189332 -0.13470538
-0.055118818 0.031547211 -0.13487189
-0.055582751 0.031337496 -0.13484156
-0.056125078 0.031263977 -0.13461442
-0.05658916 0.031054195 -0.1345841
-0.057210773 0.0311168 -0.13415968
-0.057517324 0.030634634 -0.13452347
-0.057586979 0.029746056 -0.13547632
-0.058050327 0.029536607 -0.13544604
-0.058592752 0.029462611 -0.13521938
-0.059135519 0.029388571 -0.13499255
-0.059678625 0.029314484 -0.1347656
-0.060142413 0.029104834 -0.13473529
-0.060526434 0.028759824 -0.13490169
-0.060910217 0.028415034 -0.13506798
-0.061293755 0.028070457 -0.13523415
-0.061757099 0.027861008 -0.13520388
-0.062220447 0.027651558 -0.13517362
-0.062844634 0.027711915 -0.13475025
-0.063308276 0.02750233 -0.13471995
-0.063852705 0.027427647 -0.1344929
-0.064316489 0.027217999 -0.13446259
-0.06478028 0.027008351 -0.13443232
-0.065244064 0.026798703 -0.13440201
-0.065626472 0.026454421 -0.13456851
-0.066171639 0.026379405 -0.13434142
-0.066553757 0.026035257 -0.13450794
-0.067099214 0.025960108 -0.13428082
-0.067562997 0.02575046 -0.13425052
-0.068026789 0.025540812 -0.13422021
-0.068572879 0.025465483 -0.13399294
-0.069036812 0.025255768 -0.13396263
-0.069418147 0.024911866 -0.13412932
-0.06979923 0.024568181 -0.1342959
-0.070180081 0.024224713 -0.13446239
-0.070726514 0.024149017 -0.13423532
-0.071190156 0.023939434 -0.13420503
-0.071653791 0.023729853 -0.13417475
-0.072117433 0.023520272 -0.13414446
-0.072414078 0.023043664 -0.13450767
-0.07271035 0.022567661 -0.13487042
-0.072839305 0.021826508 -0.13562478
-0.073218234 0.02148477 -0.13579042
-0.073680557 0.021275783 -0.13576022
-0.074142881 0.021066796 -0.13573001
-0.074521288 0.020725405 -0.13589557
-0.075067535 0.02064882 -0.1356696
-0.07569845 0.020704623 -0.13524748
-0.076330155 0.020760499 -0.13482483
-0.076793067 0.020551248 -0.13479459
-0.077171102 0.020209588 -0.13496065
-0.077633873 0.020000404 -0.1349304
-0.078011528 0.019659027 -0.13509637
-0.078559391 0.019582033 -0.13486995
-0.078936763 0.019240787 -0.13503593
-0.079484917 0.019163663 -0.13480948
-0.07994768 0.018954478 -0.13477924
-0.080582276 0.019009264 -0.13435617
-0.08104533 0.018799946 -0.13432591
-0.081594676 0.018722609 -0.13409904
-0.081971437 0.018381311 -0.13426541
-0.08243449 0.018171994 -0.13423516
-0.082810871 0.017830979 -0.13440144
-0.083360605 0.017753359 -0.13417464
-0.083823651 0.01754404 -0.13414441
-0.0841996 0.017203225 -0.13431074
-0.084575303 0.016862623 -0.13447693
-0.085038066 0.016653437 -0.1344467
-0.085500821 0.016444253 -0.13441648
-0.085876003 0.016103996 -0.13458259
-0.08616332 0.015633119 -0.13494474
-0.086450279 0.015162833 -0.13530642
-0.086912304 0.014953977 -0.13527623
-0.087374344 0.014745121 -0.13524605
-0.08783637 0.014536265 -0.13521585
-0.08829841 0.01432741 -0.13518567
-0.088583842 0.013858242 -0.13554698
-0.089134 0.013779567 -0.13532113
-0.089595884 0.013570777 -0.13529094
-0.090057775 0.013361986 -0.13526078
-0.090430811 0.013023345 -0.13542631
-0.090892546 0.01281462 -0.13539615
-0.091354296 0.012605896 -0.13536598
-0.09181603 0.012397172 -0.13533582
-0.092009805 0.01180017 -0.13589218
-0.092471115 0.011591642 -0.13586205
-0.092842922 0.011253984 -0.13602719
-0.093304075 0.011045522 -0.13599707
-0.093855031 0.01096606 -0.13577163
-0.094586484 0.011144825 -0.13515483
-0.095048234 0.010936101 -0.13512467
-0.095781513 0.011115006 -0.13450666
-0.096334457 0.011035392 -0.13428026
-0.096705861 0.010697163 -0.13444628
-0.097441405 0.010876012 -0.13382705
-0.097904019 0.010666892 -0.13379681
-0.098458171 0.010587061 -0.13356997
-0.099012658 0.010507179 -0.133343
-0.09947557 0.010297928 -0.13331276
-0.09966258 0.0097014066 -0.13387243
-0.099849239 0.0091060111 -0.13443108
-0.10021931 0.0087686032 -0.13459693
-0.10068119 0.0085598137 -0.13456675
-0.10114308 0.0083510233 -0.13453658
-0.037088461 0.040928967 -0.1338646
-0.037553869 0.040718585 -0.13383418
-0.038019273 0.040508207 -0.13380378
-0.038338672 0.040019013 -0.1341686
-0.038730707 0.039669558 -0.13433565
-0.038903221 0.038903695 -0.13509378
-0.039002344 0.038001489 -0.13604632
-0.039465986 0.037791904 -0.13601604
-0.039856419 0.037444256 -0.13618197
-0.04024661 0.037096832 -0.1363478
-0.040709954 0.036887381 -0.13631752
-0.041026246 0.036402639 -0.13667914
-0.04112174 0.035506926 -0.13762648
-0.041290268 0.034750648 -0.13837618
-0.041752011 0.034541924 -0.138346
-0.042508714 0.034879968 -0.13753587
-0.043341514 0.035356048 -0.13652788
-0.043953381 0.035421234 -0.13610564
-0.04456602 0.035486501 -0.13568285
-0.045179434 0.03555185 -0.13525954
-0.045718476 0.035479665 -0.13503252
-0.046182558 0.035269886 -0.1350022
-0.046722081 0.035197586 -0.13477503
-0.04726195 0.035125244 -0.13454771
-0.047347862 0.034229007 -0.13550112
-0.047811501 0.034019426 -0.13547082
-0.0487312 0.034632895 -0.13425955
-0.049195725 0.034422915 -0.13422921
-0.049126286 0.033253942 -0.13557637
-0.049589779 0.033044424 -0.1355461
-0.050359275 0.033381853 -0.13472934
-0.050823353 0.033172075 -0.13469902
-0.051287435 0.032962292 -0.13466871
-0.051597536 0.032479264 -0.13503194
-0.052215595 0.032542728 -0.13460806
-0.052525107 0.032059968 -0.13497134
-0.053143755 0.032123171 -0.13454743
-0.053607833 0.031913389 -0.1345171
-0.054071914 0.031703606 -0.13448679
-0.0544581 0.031357557 -0.13465336
-0.05484404 0.031011725 -0.13481984
-0.055385966 0.030938126 -0.13459276
-0.055928234 0.030864481 -0.13436553
-0.056392316 0.030654699 -0.1343352
-0.056856398 0.03044492 -0.13430488
-0.05716297 0.029963482 -0.13466835
-0.05739044 0.029347191 -0.1352278
-0.057853792 0.029137742 -0.13519754
-0.058317136 0.028928291 -0.13516727
-0.058859646 0.028854106 -0.13494051
-0.059323139 0.028644588 -0.13491023
-0.059866138 0.028570289 -0.13468333
-0.060250126 0.028225558 -0.13484967
-0.060713619 0.02801604 -0.13481939
-0.061177112 0.027806526 -0.13478911
-0.061640605 0.02759701 -0.13475883
-0.062104098 0.027387492 -0.13472855
-0.062647976 0.027312797 -0.13450158
-0.063111611 0.027103214 -0.13447128
-0.063575253 0.026893632 -0.13444099
-0.064119764 0.026818756 -0.13421386
-0.06450253 0.026474468 -0.13438042
-0.064885058 0.026130397 -0.13454688
-0.065348551 0.025920881 -0.13451658
-0.065812044 0.025711367 -0.13448632
-0.066112578 0.025233526 -0.13484919
-0.066657379 0.025158197 -0.13462241
-0.067284368 0.025216974 -0.13419868
-0.067748018 0.025007393 -0.1341684
-0.068293847 0.024931919 -0.13394117
-0.068757638 0.024722271 -0.13391088
-0.069138929 0.024378646 -0.13407753
-0.069437459 0.023901498 -0.13444078
-0.069983482 0.023825724 -0.13421379
-0.070446976 0.023616208 -0.13418351
-0.070993491 0.023540318 -0.13395637
-0.071457133 0.023330737 -0.13392609
-0.071587831 0.022587683 -0.13468258
-0.071967639 0.022245273 -0.13484873
-0.072180673 0.021637451 -0.13540696
-0.072559804 0.021295773 -0.13557266
-0.072938703 0.020954311 -0.13573827
-0.073317364 0.020613063 -0.13590376
-0.073779397 0.020404207 -0.13587359
-0.07424143 0.020195352 -0.1358434
-0.074787423 0.020118624 -0.13561749
-0.075249605 0.019909702 -0.13558729
-0.075964838 0.020097269 -0.13496915
-0.076427452 0.01988815 -0.13493893
-0.076890066 0.019679029 -0.13490871
-0.077437587 0.019602042 -0.13468222
-0.077815302 0.019260792 -0.13484825
-0.078363106 0.019183671 -0.13462175
-0.07874053 0.018842552 -0.13478781
-0.079288624 0.018765301 -0.1345613
-0.079751395 0.018556114 -0.13453105
-0.080214158 0.01834693 -0.13450083
-0.080676921 0.018137746 -0.1344706
-0.081311971 0.018192016 -0.13404731
-0.081688702 0.017850993 -0.13421366
-0.081978843 0.017378716 -0.13457625
-0.082441457 0.017169598 -0.13454604
-0.082904078 0.016960477 -0.13451581
-0.083453491 0.016882632 -0.13428921
-0.083916254 0.016673448 -0.13425897
-0.084204897 0.016202061 -0.13462143
-0.084754549 0.016124001 -0.13439493
-0.085217163 0.015914882 -0.13436469
-0.085679777 0.015705761 -0.13433447
-0.085792266 0.014973955 -0.13508879
-0.086254299 0.014765099 -0.13505861
-0.086716332 0.014556243 -0.13502842
-0.08709053 0.014217118 -0.13519409
-0.087552421 0.014008328 -0.13516392
-0.088014305 0.013799538 -0.13513374
-0.088387989 0.013460758 -0.13529932
-0.08893808 0.013381958 -0.13507339
-0.089311473 0.01304331 -0.13523901
-0.089861862 0.012964377 -0.13501304
-0.090234958 0.012625861 -0.13517867
-0.090785637 0.012546798 -0.13495269
-0.091247521 0.012338007 -0.13492252
-0.091709413 0.012129217 -0.13489234
-0.091814131 0.011403061 -0.13564478
-0.092007719 0.01080756 -0.13620034
-0.092468597 0.010599229 -0.13617021
-0.092929468 0.010390898 -0.13614011
-0.093390338 0.010182567 -0.13611001
-0.093940973 0.010102884 -0.13588475
-0.094312079 0.0097659053 -0.13604979
-0.094772957 0.0095575741 -0.13601966
-0.095956996 0.010379124 -0.13442475
-0.096419029 0.010170269 -0.13439456
-0.097063005 0.010219431 -0.1339719
-0.097525328 0.010010444 -0.1339417
-0.098170407 0.010059537 -0.13351847
-0.098084569 0.0090775462 -0.13466586
-0.098546319 0.0088688219 -0.1346357
-0.099008054 0.0086600967 -0.13460553
-0.099378161 0.0083230417 -0.13477123
-0.099839754 0.0081143836 -0.13474107
-0.10039328 0.0080339238 -0.13451503
-0.10094716 0.0079534147 -0.13428885
-0.037429173 0.040457498 -0.13338672
-0.037821867 0.040107571 -0.13355418
-0.038141392 0.03961863 -0.13391915
-0.038241874 0.038713861 -0.13487506
-0.038342044 0.03781195 -0.13582794
-0.038660031 0.037326317 -0.13619009
-0.038977616 0.036841292 -0.13655178
-0.039367709 0.036494385 -0.13671735
-0.039830621 0.036285132 -0.1366871
-0.040220324 0.035938513 -0.13685256
-0.040317029 0.035044096 -0.13779904
-0.040559545 0.034425341 -0.13835344
-0.041021142 0.03421668 -0.13832328
-0.041850284 0.034690969 -0.13731812
-0.042756077 0.035303965 -0.13611378
-0.043293498 0.035231818 -0.1358874
-0.04390572 0.035296965 -0.13546447
-0.044369362 0.035087384 -0.1354342
-0.044982649 0.03515248 -0.1350107
-0.045521628 0.035080168 -0.13478361
-0.045985706 0.03487039 -0.1347533
-0.046525173 0.034797966 -0.13452604
-0.04691387 0.034450825 -0.13469265
-0.047075715 0.033693012 -0.13544892
-0.047539208 0.033483498 -0.13541862
-0.048458099 0.034095753 -0.13420764
-0.048922475 0.03388584 -0.13417731
-0.048929688 0.032854948 -0.13532779
-0.049393181 0.03264543 -0.13529752
-0.050162427 0.032982357 -0.13448043
-0.050626505 0.032772575 -0.13445012
-0.051090587 0.032562796 -0.1344198
-0.051323958 0.031943653 -0.13497986
-0.051787596 0.031734068 -0.13494956
-0.052251238 0.031524487 -0.13491929
-0.052792173 0.031451076 -0.1346923
-0.05325596 0.031241426 -0.13466199
-0.053719744 0.031031776 -0.13463169
-0.054105796 0.030686157 -0.13479811
-0.054491609 0.030340757 -0.13496444
-0.055189181 0.030538755 -0.13434394
-0.055653114 0.030329041 -0.13431363
-0.056195464 0.030255204 -0.13408631
-0.056502465 0.029773885 -0.1344499
-0.056730561 0.029157776 -0.13500957
-0.057115294 0.028813075 -0.13517572
-0.057578497 0.028603693 -0.13514546
-0.058041696 0.028394308 -0.13511519
-0.058504898 0.028184924 -0.13508493
-0.059047293 0.028110527 -0.13485822
-0.059510641 0.027901078 -0.13482794
-0.060053527 0.027826566 -0.13460107
-0.060517021 0.02761705 -0.13457081
-0.060980514 0.027407534 -0.13454053
-0.061444007 0.027198019 -0.13451023
-0.0619075 0.026988503 -0.13447997
-0.062370993 0.026778987 -0.13444968
-0.062914953 0.026704097 -0.13422263
-0.063378595 0.026494514 -0.13419233
-0.063761473 0.026150439 -0.13435884
-0.064144112 0.02580658 -0.13452525
-0.064688459 0.025731407 -0.13429828
-0.0650708 0.02538768 -0.13446471
-0.065452904 0.025044173 -0.13463102
-0.065916106 0.024834787 -0.13460077
-0.066460848 0.02475933 -0.1343739
-0.066924192 0.024549881 -0.13434362
-0.067469418 0.024474312 -0.1341166
-0.068014994 0.024398694 -0.13388944
-0.068478629 0.024189111 -0.13385914
-0.068859905 0.023845764 -0.13402577
-0.069240928 0.023502633 -0.13419227
-0.069704272 0.023293182 -0.13416201
-0.070167616 0.023083735 -0.13413174
-0.07054811 0.022740951 -0.13429816
-0.070928358 0.022398386 -0.13446447
-0.071308374 0.022056038 -0.13463069
-0.071688145 0.021713905 -0.1347968
-0.071818307 0.020974295 -0.13555077
-0.072280489 0.020765373 -0.13552058
-0.072659358 0.020424187 -0.13568614
-0.073121384 0.020215331 -0.13565595
-0.073583417 0.020006474 -0.13562578
-0.074045457 0.019797619 -0.13559559
-0.074591376 0.019720765 -0.13536961
-0.075053558 0.019511843 -0.13533941
-0.075599976 0.019434875 -0.13511328
-0.075977914 0.019094 -0.13527904
-0.076609209 0.019148806 -0.13485679
-0.077071682 0.018939752 -0.13482659
-0.077619068 0.018862555 -0.13460015
-0.07808169 0.018653436 -0.13456991
-0.078459091 0.018312592 -0.13473594
-0.079006918 0.018235197 -0.13450947
-0.079384029 0.017894484 -0.13467552
-0.079932153 0.017816957 -0.13444903
-0.080308966 0.017476378 -0.13461509
-0.080771439 0.017267324 -0.13458489
-0.081147872 0.016927024 -0.13475084
-0.081524067 0.016586939 -0.13491671
-0.081986241 0.016378017 -0.1348865
-0.082621321 0.01643111 -0.13446403
-0.083083794 0.016222058 -0.13443381
-0.083459496 0.015882086 -0.13459982
-0.083921812 0.015673099 -0.13456963
-0.084384143 0.015464111 -0.13453943
-0.084846467 0.015255124 -0.13450922
-0.085221499 0.014915565 -0.13467516
-0.085596286 0.014576221 -0.134841
-0.085883416 0.014106897 -0.13520251
-0.086345159 0.013898172 -0.13517235
-0.086806901 0.013689448 -0.13514218
-0.087268643 0.013480724 -0.13511202
-0.087730385 0.013272 -0.13508184
-0.088192128 0.013063274 -0.13505168
-0.08865387 0.01285455 -0.13502151
-0.089115612 0.012645827 -0.13499135
-0.089577354 0.012437101 -0.13496119
-0.089950427 0.012098858 -0.13512677
-0.090500839 0.012019652 -0.13490085
-0.090962589 0.011810929 -0.13487069
-0.091424324 0.011602204 -0.13484053
-0.091529377 0.010876939 -0.13559277
-0.091812231 0.010410825 -0.13595314
-0.092273109 0.010202494 -0.13592303
-0.092733979 0.0099941632 -0.13589293
-0.093194857 0.0097858328 -0.13586283
-0.09365572 0.0095775016 -0.13583271
-0.094116591 0.0093691712 -0.1358026
-0.094397649 0.0089042969 -0.13616261
-0.094948255 0.0088242628 -0.13593751
-0.095951177 0.0093862945 -0.13473475
-0.096685082 0.0095636789 -0.13411656
-0.097147115 0.0093548233 -0.13408639
-0.097426973 0.0088887876 -0.13444838
-0.097797573 0.00855166 -0.13461412
-0.097894579 0.0078304578 -0.13536642
-0.098538063 0.0078780409 -0.13494532
-0.098907962 0.0075415494 -0.13511075
-0.099460676 0.0074609858 -0.13488504
-0.099921979 0.0072524585 -0.1348549
-0.10075124 0.0075558056 -0.13404112
