# .PCD v0.7 - Point Cloud Data file format
VERSION 0.7
FIELDS x y z
SIZE 4 4 4
TYPE F F F
COUNT 1 1 1
WIDTH 1252
HEIGHT 1
VIEWPOINT 0 0 0 1 0 0 0
POINTS 1252
DATA ascii
-0.093700334 -0.052079488 -0.12923819
-0.094223447 -0.05196093 -0.12966135
-0.094604775 -0.051598582 -0.1296593
-0.094986096 -0.051236242 -0.12965725
-0.095226623 -0.050629158 -0.12922999
-0.095537856 -0.050143972 -0.12901512
-0.071501523 0.034405917 -0.0082930168
-0.072600275 0.033590641 -0.010379527
-0.029605294 -0.0090129431 -0.011434311
-0.030380603 -0.0090667484 -0.012321094
-0.031691559 -0.0099201975 -0.014679858
-0.032781404 -0.010450504 -0.016438819
-0.033441763 -0.010343371 -0.01702174
-0.033570372 -0.009440315 -0.01614101
-0.08767245 -0.061777599 -0.13277559
-0.088413022 -0.062007282 -0.13382357
-0.08879175 -0.061647408 -0.13382155
-0.08931414 -0.061523527 -0.13423857
-0.089692622 -0.061163884 -0.13423654
-0.090071097 -0.060804244 -0.13423452
-0.090020195 -0.059733611 -0.13297364
-0.090327814 -0.059254382 -0.13276133
-0.090707146 -0.058893926 -0.13275929
-0.091300406 -0.058890596 -0.1333877
-0.091821522 -0.058768418 -0.13380526
-0.092341952 -0.058646403 -0.1342223
-0.092720427 -0.058286764 -0.13422027
-0.093028314 -0.057807997 -0.13400878
-0.093336403 -0.057328925 -0.13379714
-0.093644701 -0.056849536 -0.13358536
-0.092800826 -0.052381486 -0.12765056
-0.093609832 -0.052750144 -0.12892808
-0.094203733 -0.052752823 -0.12956394
-0.094584934 -0.052390594 -0.1295619
-0.095247604 -0.052515212 -0.13040847
-0.095628306 -0.052153457 -0.13040642
-0.095728531 -0.051303912 -0.12955576
-0.095899262 -0.050574649 -0.12891579
-0.096420944 -0.050457075 -0.12933916
-0.097498812 -0.051316157 -0.13145591
-0.097878888 -0.050954994 -0.13145387
-0.029949 -0.0093767345 -0.011065708
-0.030615887 -0.0092697293 -0.011656603
-0.032247946 -0.010601217 -0.014901122
-0.033122864 -0.010811921 -0.016072622
-0.033782966 -0.010704512 -0.016655823
-0.03369936 -0.0094828578 -0.015187714
-0.087889388 -0.061965827 -0.13225475
-0.088701911 -0.062313057 -0.13351376
-0.089080632 -0.061953183 -0.13351174
-0.089674525 -0.06194688 -0.13413838
-0.090124384 -0.061705176 -0.13434564
-0.090502612 -0.061345767 -0.13434361
-0.090809576 -0.060868308 -0.1341323
-0.091116756 -0.060390536 -0.13392082
-0.091210529 -0.059556674 -0.13307971
-0.091589496 -0.059196569 -0.13307768
-0.092039458 -0.058955364 -0.13328561
-0.092489138 -0.058714323 -0.13349342
-0.092938513 -0.058473431 -0.1337011
-0.093387604 -0.058232695 -0.13390863
-0.093766086 -0.057873059 -0.1339066
-0.093933687 -0.057155412 -0.13327543
-0.093960769 -0.056196604 -0.13222213
-0.094199456 -0.055595718 -0.13179862
-0.09457916 -0.055234909 -0.13179658
-0.094888657 -0.05475359 -0.13158362
-0.095057957 -0.054030318 -0.13094792
-0.095438167 -0.053669035 -0.13094588
-0.095958278 -0.053549867 -0.1313664
-0.096338227 -0.053188819 -0.13136436
-0.096369319 -0.052220721 -0.13030486
-0.096749894 -0.051859088 -0.13030282
-0.09740866 -0.051984195 -0.13114701
-0.098065712 -0.052108973 -0.13198905
-0.098721057 -0.052233431 -0.13282888
-0.09944322 -0.052478459 -0.1338761
-0.099821694 -0.052118815 -0.13387407
-0.030959327 -0.0096332403 -0.011288284
-0.032483041 -0.010804008 -0.014240179
-0.033144902 -0.010696399 -0.014825908
-0.033593059 -0.010270545 -0.014823502
-0.033828545 -0.0095254648 -0.014232951
-0.088558301 -0.06191162 -0.13194229
-0.089297682 -0.062141161 -0.13299197
-0.089963138 -0.062252354 -0.13382888
-0.090341486 -0.061892834 -0.13382684
-0.090791129 -0.061651144 -0.1340342
-0.091169357 -0.061291739 -0.13403216
-0.091476545 -0.060814261 -0.13382074
-0.091783926 -0.060336474 -0.13360918
-0.091878571 -0.059502542 -0.13276765
-0.092257537 -0.059142433 -0.13276562
-0.092707291 -0.05890125 -0.13297366
-0.093227312 -0.058779106 -0.13339137
-0.093605913 -0.058419351 -0.13338934
-0.093984514 -0.058059592 -0.13338731
-0.09408205 -0.057222422 -0.13254523
-0.094320573 -0.056622796 -0.13212234
-0.094770089 -0.056382194 -0.13233079
-0.095009148 -0.055781823 -0.13190764
-0.095458589 -0.055541415 -0.13211623
-0.095768064 -0.05506067 -0.13190356
-0.09614753 -0.054700091 -0.13190152
-0.09645734 -0.054218914 -0.13168871
-0.096836925 -0.053858221 -0.13168667
-0.097216509 -0.053497527 -0.13168463
-0.097526766 -0.053015802 -0.13147169
-0.097975679 -0.052776139 -0.13168056
-0.098631136 -0.052899726 -0.13252078
-0.099353448 -0.053143673 -0.13356851
-0.099936955 -0.053145941 -0.1341947
-0.10045128 -0.053027771 -0.1346108
-0.10076118 -0.052548077 -0.13439979
-0.02987735 -0.008979504 -0.0082426583
-0.031625807 -0.010476709 -0.011809075
-0.032611389 -0.010847664 -0.013283951
-0.033380251 -0.010899148 -0.014165191
-0.033722166 -0.010313759 -0.013868458
-0.033957932 -0.009568139 -0.013276719
-0.033339906 -0.0075353771 -0.010313977
-0.089227222 -0.061857414 -0.13162982
-0.089965515 -0.062087044 -0.13268003
-0.090630099 -0.062198307 -0.13351732
-0.091008447 -0.061838783 -0.13351528
-0.091457881 -0.06159712 -0.13372275
-0.09176515 -0.061119739 -0.13351123
-0.092072628 -0.060642049 -0.13329956
-0.092096671 -0.059689846 -0.13224733
-0.092404865 -0.059210759 -0.13203484
-0.092925586 -0.059088293 -0.13245356
-0.093516111 -0.059084781 -0.13308164
-0.093965009 -0.058843847 -0.1332894
-0.093992129 -0.05788872 -0.13223714
-0.094160214 -0.057169922 -0.13160333
-0.09453968 -0.056809343 -0.13160129
-0.095059358 -0.056688365 -0.13202056
-0.095438577 -0.056328025 -0.13201854
-0.095817789 -0.055967681 -0.13201649
-0.096057527 -0.055367038 -0.13159314
-0.096436992 -0.055006463 -0.1315911
-0.09681645 -0.054645889 -0.13158907
-0.097195908 -0.054285314 -0.13158701
-0.097713858 -0.054165974 -0.13200632
-0.09816213 -0.053926252 -0.13221474
-0.098885201 -0.05416853 -0.13326298
-0.099263683 -0.053808887 -0.13326092
-0.09964215 -0.053449251 -0.13325889
-0.10008892 -0.053210225 -0.13346651
-0.10060348 -0.053091932 -0.13388336
-0.1009816 -0.052732643 -0.13388133
-0.10108809 -0.051889643 -0.13304098
-0.10146669 -0.051529888 -0.13303895
-0.10184529 -0.051170129 -0.13303691
-0.10181735 -0.05008034 -0.13177329
-0.030980121 -0.010468111 -0.0099598961
-0.031968851 -0.010839799 -0.011441182
-0.032953773 -0.011210057 -0.012916766
-0.03372224 -0.011261121 -0.01379843
-0.034064285 -0.010675872 -0.013501556
-0.034300312 -0.0099305306 -0.012909533
-0.034110818 -0.0085425954 -0.011132815
-0.034454197 -0.007954265 -0.010833882
-0.035010591 -0.0076876041 -0.011127982
-0.035460476 -0.0072601074 -0.011125566
-0.08946456 -0.061093021 -0.13004954
-0.090633348 -0.062032927 -0.13236807
-0.09129706 -0.062144261 -0.13320577
-0.091675416 -0.061784737 -0.13320373
-0.092053764 -0.061425213 -0.1332017
-0.09200675 -0.06035614 -0.13193923
-0.092314914 -0.059877273 -0.13172665
-0.092694119 -0.059516929 -0.13172461
-0.093073338 -0.059156589 -0.13172258
-0.093734525 -0.059271768 -0.13256194
-0.094113253 -0.058911894 -0.13255991
-0.094140626 -0.057956256 -0.13150577
-0.094379351 -0.057356711 -0.13108194
-0.094758928 -0.056996018 -0.1310799
-0.095348626 -0.056994539 -0.13171035
-0.095727846 -0.056634199 -0.13170831
-0.096107058 -0.056273852 -0.13170628
-0.096346982 -0.055673413 -0.13128272
-0.09672644 -0.055312835 -0.13128068
-0.097105905 -0.05495226 -0.13127863
-0.097485363 -0.054591682 -0.13127659
-0.098003127 -0.054472145 -0.13169609
-0.09872669 -0.054713614 -0.1327455
-0.099173903 -0.0544741 -0.13295336
-0.099552386 -0.054114465 -0.1329513
-0.099999182 -0.053875227 -0.13315903
-0.1005138 -0.053756502 -0.13357608
-0.1008919 -0.053397208 -0.13357405
-0.10093024 -0.052434165 -0.13252328
-0.10130896 -0.052074295 -0.13252124
-0.10168769 -0.05171442 -0.13251922
-0.10213409 -0.051475804 -0.13272721
-0.10224222 -0.050630074 -0.13188426
-0.10262131 -0.050269853 -0.13188222
-0.10300039 -0.049909625 -0.13188019
-0.1035813 -0.049915049 -0.13250904
-0.031754676 -0.011470804 -0.01077928
-0.032526311 -0.011521686 -0.011665455
-0.033615902 -0.012049112 -0.013434078
-0.03406423 -0.011623096 -0.013431668
-0.034512557 -0.011197078 -0.01342926
-0.034642696 -0.010292922 -0.012542348
-0.034453996 -0.0089058261 -0.010764781
-0.034797508 -0.0083176354 -0.010465704
-0.035353769 -0.0080508348 -0.010759948
-0.036121234 -0.0081056701 -0.011646144
-0.036781572 -0.0079999315 -0.012235
-0.091514617 -0.06233212 -0.13268644
-0.091893092 -0.06197248 -0.13268438
-0.092129812 -0.061376911 -0.13226229
-0.092011802 -0.060188036 -0.13078569
-0.092462361 -0.05994612 -0.13099472
-0.092912629 -0.05970436 -0.13120359
-0.093362607 -0.05946276 -0.13141236
-0.093812294 -0.059221312 -0.13162097
-0.09419138 -0.058861092 -0.13161895
-0.094429985 -0.058262527 -0.13119546
-0.094668895 -0.05766318 -0.13077141
-0.094978325 -0.057182811 -0.13055816
-0.095428064 -0.056941796 -0.13076733
-0.095807649 -0.056581102 -0.1307653
-0.096187234 -0.056220409 -0.13076326
-0.096497156 -0.055739567 -0.13055001
-0.09687686 -0.055378757 -0.13054797
-0.09739536 -0.055258628 -0.13096821
-0.097774819 -0.054898053 -0.13096617
-0.09836138 -0.054898616 -0.13159654
-0.099084139 -0.055139322 -0.13264577
-0.099462606 -0.054779679 -0.13264374
-0.099841088 -0.054420039 -0.13264169
-0.10042412 -0.054421067 -0.1332688
-0.10080222 -0.054061778 -0.13326675
-0.10104451 -0.053461656 -0.13284545
-0.10121914 -0.052739941 -0.13221346
-0.10132611 -0.051895581 -0.13136958
-0.10163741 -0.051413804 -0.13115674
-0.10208454 -0.051174898 -0.13136551
-0.10239608 -0.050692886 -0.13115266
-0.10291047 -0.050575923 -0.1315721
-0.10335691 -0.050337445 -0.13178059
-0.10393728 -0.050342452 -0.13240935
-0.1043828 -0.050104357 -0.13261729
-0.10476127 -0.049744718 -0.13261527
-0.10513975 -0.049385078 -0.13261324
-0.032097854 -0.011834035 -0.010411247
-0.032869086 -0.011884496 -0.011297845
-0.033957891 -0.012411086 -0.013067316
-0.034406219 -0.011985068 -0.013064907
-0.03485455 -0.011559051 -0.013062499
-0.035091095 -0.010814677 -0.012470366
-0.034797169 -0.0092690568 -0.010396746
-0.034928095 -0.0083595235 -0.009503236
-0.035696942 -0.0084140655 -0.010391912
-0.03625264 -0.00814733 -0.010686071
-0.037124086 -0.0083624627 -0.011867673
-0.037888035 -0.0084168334 -0.012750886
-0.092539035 -0.059896234 -0.13005039
-0.093060523 -0.059773125 -0.13047108
-0.093581326 -0.059650172 -0.13089123
-0.094101466 -0.059527386 -0.13131085
-0.0944103 -0.059048247 -0.13109805
-0.094719343 -0.058568798 -0.13088514
-0.094958439 -0.057969656 -0.13046089
-0.095267966 -0.057489384 -0.13024755
-0.095647678 -0.057128571 -0.13024549
-0.095817663 -0.056407861 -0.12960872
-0.096337356 -0.056286942 -0.13002998
-0.096577823 -0.055685531 -0.12960462
-0.0969579 -0.055324368 -0.12960258
-0.097407438 -0.055083718 -0.12981227
-0.097995125 -0.055084102 -0.13044459
-0.09865056 -0.05520469 -0.13128643
-0.099578217 -0.055804219 -0.13296558
-0.099956326 -0.055444926 -0.13296354
-0.10033444 -0.055085637 -0.1329615
-0.10071254 -0.054726344 -0.13295947
-0.10115853 -0.054487139 -0.13316698
-0.10146876 -0.054007765 -0.13295542
-0.10123616 -0.052562095 -0.13106139
-0.10154743 -0.052080534 -0.13084845
-0.10185889 -0.051598661 -0.13063538
-0.10237381 -0.051481068 -0.13105528
-0.10282057 -0.051242217 -0.13126402
-0.10326702 -0.051003523 -0.13147262
-0.103646 -0.050643418 -0.13147058
-0.10422608 -0.050648123 -0.13209963
-0.10460468 -0.050288368 -0.1320976
-0.10518326 -0.05029342 -0.13272542
-0.10569435 -0.050177056 -0.13314262
-0.10607234 -0.049817882 -0.13314059
-0.032333706 -0.012038006 -0.009746274
-0.033532079 -0.012723741 -0.011817623
-0.034087326 -0.012455964 -0.012110553
-0.03442977 -0.011870724 -0.011812801
-0.034878619 -0.011444215 -0.011810389
-0.035009332 -0.010539299 -0.01092058
-0.034821257 -0.0091511672 -0.0091371946
-0.035165314 -0.0085623888 -0.008837142
-0.035722073 -0.008295184 -0.0091323545
-0.036490005 -0.0083498005 -0.01002146
-0.037256159 -0.0084042894 -0.010908511
-0.038230155 -0.0087789455 -0.012383983
-0.038678657 -0.0083527649 -0.012381575
-0.093279354 -0.059960824 -0.12994915
-0.093870699 -0.059956446 -0.13058092
-0.094390638 -0.05983346 -0.13100073
-0.094769731 -0.059473235 -0.1309987
-0.095078789 -0.058994081 -0.13078579
-0.095388047 -0.05851461 -0.13057277
-0.095627576 -0.057915431 -0.13014834
-0.095937319 -0.057435144 -0.12993488
-0.096107587 -0.056714728 -0.12929779
-0.096487671 -0.056353565 -0.12929575
-0.096658647 -0.055631384 -0.1286574
-0.097247824 -0.055631235 -0.12929165
-0.097627908 -0.055270072 -0.12928961
-0.098284677 -0.055390574 -0.13013405
-0.098939732 -0.055510763 -0.1309763
-0.099866644 -0.056109492 -0.13265625
-0.10024475 -0.055750206 -0.13265422
-0.10069089 -0.055510666 -0.13286184
-0.10106888 -0.055151492 -0.1328598
-0.1015146 -0.054912228 -0.13306728
-0.10182484 -0.054433148 -0.13285574
-0.10186469 -0.053472098 -0.13180415
-0.10183679 -0.052386805 -0.13053814
-0.10214835 -0.051905029 -0.13032494
-0.10293308 -0.052271865 -0.13158773
-0.10358062 -0.052395828 -0.13242616
-0.10375767 -0.051673312 -0.13179398
-0.10380072 -0.050706215 -0.13073896
-0.10417993 -0.050345875 -0.1307369
-0.1046261 -0.05010739 -0.13094576
-0.10533869 -0.05035587 -0.13199604
-0.10604896 -0.050603539 -0.1330429
-0.10642682 -0.050244484 -0.13304088
-0.033234093 -0.012133 -0.00967276
-0.034216955 -0.01250091 -0.011152317
-0.034559719 -0.011915237 -0.010853966
-0.034902744 -0.011329112 -0.010555385
-0.034927316 -0.010263071 -0.0093660085
-0.035164833 -0.0095148189 -0.0087687327
-0.035509016 -0.0089261811 -0.0084685385
-0.036171611 -0.0088195233 -0.0090614399
-0.036833178 -0.0087130312 -0.0096534258
-0.037704073 -0.0089273741 -0.010837075
-0.038572278 -0.0091410587 -0.012017081
-0.03902078 -0.008714878 -0.012014672
-0.092265464 -0.059079938 -0.12687841
-0.09356901 -0.060267393 -0.12963854
-0.09408965 -0.060144082 -0.13005938
-0.094749957 -0.060258053 -0.13090143
-0.095128924 -0.059897944 -0.1308994
-0.095437996 -0.059419084 -0.13068654
-0.09574727 -0.058939908 -0.13047354
-0.095986962 -0.058341201 -0.13004918
-0.096226968 -0.057741713 -0.12962425
-0.096327707 -0.056901675 -0.12877479
-0.096358806 -0.055939008 -0.12771036
-0.096739627 -0.055577137 -0.1277083
-0.097537756 -0.055938106 -0.12898073
-0.097987108 -0.055697259 -0.12919061
-0.098574229 -0.055697046 -0.12982354
-0.098953813 -0.055336349 -0.12982149
-0.10015507 -0.056414772 -0.13234694
-0.10053317 -0.056055482 -0.13234492
-0.10091127 -0.055696193 -0.13234288
-0.10128939 -0.055336904 -0.13234085
-0.10166749 -0.054977611 -0.13233881
-0.10197799 -0.05449824 -0.13212691
-0.1022211 -0.053898204 -0.13170472
-0.10212615 -0.052693076 -0.13022782
-0.10257313 -0.052453753 -0.13043687
-0.10322198 -0.052577641 -0.1312779
-0.10386914 -0.052701205 -0.13211675
-0.10404647 -0.05197899 -0.13148426
-0.10408999 -0.051012386 -0.13042873
-0.1044692 -0.050652046 -0.13042669
-0.10491528 -0.050413463 -0.13063563
-0.10549431 -0.050418399 -0.1312657
-0.10633719 -0.050908618 -0.13273379
-0.10671506 -0.050549563 -0.13273177
-0.031112252 -0.014316951 -0.0087221432
-0.033470385 -0.012337087 -0.0090075023
-0.034559473 -0.012863441 -0.01078499
-0.034902368 -0.012277908 -0.010486498
-0.034926929 -0.011213742 -0.0092974752
-0.035164353 -0.010466513 -0.0087003764
-0.035402145 -0.0097181303 -0.0081023546
-0.035852727 -0.0092899734 -0.008099935
-0.036515053 -0.0091830352 -0.0086931214
-0.037492357 -0.0095569128 -0.010175706
-0.03825647 -0.0096099451 -0.011061553
-0.039227422 -0.0099818539 -0.012535032
-0.039987192 -0.010034234 -0.013415444
-0.093337506 -0.06069763 -0.12890632
-0.093999647 -0.060811032 -0.12975098
-0.094519675 -0.060687445 -0.13017148
-0.095109031 -0.060682368 -0.1308022
-0.095487878 -0.060322382 -0.13080016
-0.095866725 -0.059962388 -0.13079813
-0.096106261 -0.05936493 -0.13037439
-0.09627641 -0.058647573 -0.12973875
-0.096586265 -0.058167677 -0.12952524
-0.096757121 -0.057448216 -0.12888795
-0.097067527 -0.056967303 -0.1286739
-0.097447604 -0.05660614 -0.12867184
-0.098242797 -0.056964397 -0.1299399
-0.098759897 -0.056843355 -0.13036013
-0.099001475 -0.056243479 -0.12993582
-0.099723645 -0.056482151 -0.13098843
-0.10023895 -0.056361623 -0.13140731
-0.10061743 -0.05600198 -0.13140526
-0.10099591 -0.05564234 -0.13140322
-0.10137438 -0.055282701 -0.1314012
-0.10182059 -0.055043079 -0.13160941
-0.10219894 -0.054683559 -0.13160738
-0.10257729 -0.054324035 -0.13160534
-0.10288829 -0.053844139 -0.13139306
-0.1028624 -0.052759927 -0.13012667
-0.10344362 -0.052762575 -0.13075744
-0.10382246 -0.052402586 -0.13075538
-0.10400004 -0.051678903 -0.13012055
-0.10437926 -0.051318556 -0.13011852
-0.10475847 -0.050958216 -0.13011648
-0.10533784 -0.050962623 -0.13074726
-0.1057832 -0.050724175 -0.13095587
-0.10629457 -0.05060738 -0.13137478
-0.031328842 -0.015582331 -0.00924832
-0.031778552 -0.015155 -0.0092459042
-0.031905927 -0.014252636 -0.0083514061
-0.033706859 -0.01254133 -0.0083417315
-0.034370329 -0.012431966 -0.0089342734
-0.035138939 -0.012481735 -0.00982258
-0.035270102 -0.011576973 -0.0089294398
-0.035507794 -0.010830024 -0.0083320569
-0.036752798 -0.009386139 -0.0080269706
-0.037940171 -0.010079553 -0.010104552
-0.038808018 -0.010291466 -0.011285687
-0.039881054 -0.010820712 -0.013051789
-0.040535718 -0.010713338 -0.013637083
-0.041086152 -0.010447357 -0.013928193
-0.094289109 -0.061117399 -0.12944056
-0.094808944 -0.060993619 -0.12986125
-0.095328107 -0.060869999 -0.13028139
-0.095707074 -0.06050989 -0.13027936
-0.096155711 -0.060268261 -0.1304882
-0.096325807 -0.059552249 -0.1298531
-0.096496232 -0.058834843 -0.12921675
-0.096806251 -0.058354855 -0.129003
-0.097046949 -0.057754986 -0.12857711
-0.096939795 -0.056553952 -0.12708728
-0.097320616 -0.056192081 -0.12708524
-0.098463178 -0.057151061 -0.12941813
-0.099049069 -0.057149429 -0.13005
-0.099428162 -0.056789204 -0.13004798
-0.10001254 -0.056787927 -0.13067861
-0.10052766 -0.056667194 -0.13109767
-0.10090613 -0.056307558 -0.13109565
-0.10121668 -0.055828147 -0.13088313
-0.10159528 -0.055468392 -0.13088109
-0.10197388 -0.055108637 -0.13087906
-0.10248755 -0.054989032 -0.13129787
-0.1028659 -0.054629508 -0.13129582
-0.10324425 -0.054269988 -0.13129379
-0.10335376 -0.053428441 -0.13044953
-0.10359817 -0.052826732 -0.13002558
-0.1039101 -0.052345414 -0.12981236
-0.10428931 -0.051985074 -0.12981032
-0.10453456 -0.051381841 -0.12938553
-0.10504774 -0.05126439 -0.12980625
-0.10556025 -0.051147092 -0.13022642
-0.10593922 -0.050786983 -0.13022439
-0.027489096 -0.021734279 -0.010981425
-0.031222172 -0.016372753 -0.008882842
-0.031779379 -0.016103052 -0.0091774696
-0.032121599 -0.015518092 -0.0088780103
-0.03471351 -0.012795197 -0.008566238
-0.035269585 -0.012526772 -0.0088611003
-0.036142543 -0.012735158 -0.010045514
-0.036063168 -0.011512708 -0.0085589886
-0.037307423 -0.0100702 -0.0082542254
-0.038387645 -0.010601792 -0.010033454
-0.039254468 -0.01081282 -0.011214243
-0.040429663 -0.011499213 -0.013273709
-0.041701362 -0.012339676 -0.015614228
-0.042147122 -0.011916103 -0.015611834
-0.094578557 -0.061423771 -0.12913014
-0.095098212 -0.06129979 -0.12955102
-0.095477432 -0.06093945 -0.129549
-0.095856644 -0.060579106 -0.12954696
-0.096026614 -0.059862703 -0.1289103
-0.096406199 -0.059502006 -0.12890826
-0.096716188 -0.059022237 -0.12869442
-0.097095899 -0.058661427 -0.12869239
-0.097336784 -0.058061756 -0.12826629
-0.097716734 -0.057700709 -0.12826425
-0.098096699 -0.057339665 -0.12826221
-0.098683707 -0.057337847 -0.12889604
-0.099338241 -0.057455502 -0.12973988
-0.099648789 -0.056975689 -0.12952659
-0.10030144 -0.057093702 -0.13036878
-0.10074829 -0.056853335 -0.13057749
-0.10112688 -0.05649358 -0.13057543
-0.10150548 -0.056133822 -0.13057341
-0.10188408 -0.055774067 -0.13057138
-0.10226268 -0.055414312 -0.13056935
-0.10277616 -0.05529451 -0.13098834
-0.10315452 -0.054934986 -0.13098632
-0.10346569 -0.054455291 -0.13077383
-0.10364275 -0.053734314 -0.13013962
-0.10402159 -0.05337432 -0.13013759
-0.10426643 -0.052772578 -0.12971342
-0.10444456 -0.052048787 -0.12907714
-0.10482401 -0.051688209 -0.12907511
-0.10533701 -0.051570561 -0.12949604
-0.10571621 -0.051210217 -0.12949398
-0.026508851 -0.021280855 -0.0082441205
-0.027831215 -0.02209639 -0.010614523
-0.027844841 -0.021048997 -0.0094275288
-0.031672753 -0.016893169 -0.0088121332
-0.032336768 -0.01678062 -0.0094033983
-0.03257183 -0.016038837 -0.0088073034
-0.035506573 -0.01273093 -0.0081957867
-0.036062341 -0.01246253 -0.0084907925
-0.036512055 -0.012035199 -0.0084883766
-0.036856227 -0.011448441 -0.0081885364
-0.038939305 -0.011282812 -0.010258465
-0.039596453 -0.011174793 -0.010847482
-0.040874124 -0.012018506 -0.013201722
-0.042041395 -0.012699574 -0.01524957
-0.042487152 -0.012276 -0.015247175
-0.096626133 -0.059689619 -0.12838583
-0.096936293 -0.059209753 -0.12817174
-0.097316124 -0.058848824 -0.12816972
-0.097557232 -0.058249082 -0.12774314
-0.098904371 -0.057524748 -0.12837359
-0.09928409 -0.057163939 -0.12837155
-0.099663794 -0.056803126 -0.12836953
-0.10031727 -0.056921516 -0.12921433
-0.10096905 -0.0570396 -0.13005695
-0.10141568 -0.056799255 -0.13026573
-0.10172649 -0.056319851 -0.13005286
-0.10210522 -0.055959981 -0.13005084
-0.10255148 -0.055719987 -0.13025963
-0.10299744 -0.055480145 -0.13046828
-0.10330867 -0.055000469 -0.13025555
-0.1032836 -0.053918164 -0.12898651
-0.10366293 -0.053557701 -0.12898448
-0.10417651 -0.053438876 -0.12940533
-0.10428745 -0.052594602 -0.12855697
-0.10466703 -0.052233908 -0.12855493
-0.10504662 -0.051873215 -0.12855288
-0.027738297 -0.021838503 -0.0090624746
-0.028078692 -0.021256203 -0.0087632025
-0.031673618 -0.017840188 -0.0087438906
-0.032122985 -0.017413186 -0.0087414766
-0.032786399 -0.017300278 -0.0093325702
-0.033128608 -0.016716454 -0.0090335179
-0.039385878 -0.011803985 -0.010187388
-0.040457584 -0.012329749 -0.01195602
-0.041215066 -0.01237937 -0.012836086
-0.041867953 -0.012270925 -0.013420871
-0.042314567 -0.01184654 -0.013418472
-0.09746708 -0.058917113 -0.12743425
-0.097639009 -0.058197446 -0.12679408
-0.098642118 -0.056872793 -0.12636183
-0.099505022 -0.057350848 -0.12784877
-0.099953435 -0.057109699 -0.12805888
-0.10040156 -0.056868706 -0.12826887
-0.10112193 -0.057106517 -0.12932487
-0.10163666 -0.056985501 -0.12974508
-0.10181205 -0.05626652 -0.12910947
-0.10219114 -0.055906296 -0.12910742
-0.10284027 -0.056025658 -0.12994991
-0.10321887 -0.055665903 -0.12994787
-0.10319362 -0.054584891 -0.12867823
-0.10350563 -0.054103833 -0.12846445
-0.10321052 -0.052531745 -0.12633729
-0.10430851 -0.052416161 -0.12739749
-0.10468859 -0.052054998 -0.12739547
-0.10506867 -0.051693831 -0.12739342
-0.0320164 -0.018202998 -0.0083762817
-0.032465763 -0.017775996 -0.0083738677
-0.03291513 -0.017348994 -0.0083714547
-0.033257652 -0.016764738 -0.0080718016
-0.04004008 -0.01264171 -0.010707448
-0.040902372 -0.012849121 -0.011884484
-0.041246384 -0.012265829 -0.011587559
-0.041693851 -0.011840629 -0.011585156
-0.099313222 -0.056818411 -0.12604836
-0.10017459 -0.057296589 -0.127536
-0.10069111 -0.057175174 -0.12795834
-0.10107069 -0.056814481 -0.1279563
-0.10172213 -0.056932818 -0.12880138
-0.10279188 -0.05573215 -0.1285837
-0.10317109 -0.05537181 -0.12858166
-0.10341562 -0.054770779 -0.12815607
-0.032359179 -0.018565809 -0.0080086729
-0.040899698 -0.013792968 -0.011815405
-0.041346822 -0.013368095 -0.011813004
-0.041277774 -0.012152027 -0.010336156
-0.099258788 -0.056524567 -0.12466817
-0.1003959 -0.057483606 -0.12701277
-0.10098066 -0.057481647 -0.12764782
-0.10136025 -0.057120953 -0.12764578
-0.10294615 -0.055798307 -0.12784971
-0.10332561 -0.055437729 -0.12784769
-0.040930662 -0.013681012 -0.010565225
-0.041378308 -0.013255649 -0.010562819
-0.099930994 -0.056470092 -0.12435418
-0.10120208 -0.057668597 -0.12712498
-0.1016498 -0.057427421 -0.12733527
-0.10168952 -0.056467183 -0.1262702
-0.031764671 -0.02282072 -0.009954148
-0.04127213 -0.01404243 -0.010199026
-0.041719768 -0.013617068 -0.010196622
-0.032106262 -0.023182278 -0.0095878094
-0.041613594 -0.014403848 -0.0098328283
-0.042267181 -0.014293683 -0.010420816
-0.042508874 -0.013553122 -0.009828019
-0.042263981 -0.015236977 -0.010352298
-0.042711105 -0.014812103 -0.010349897
-0.043873902 -0.015485954 -0.012406162
-0.04260505 -0.015597979 -0.0099865217
-0.043870099 -0.016425906 -0.012337094
-0.044823669 -0.016782256 -0.01379802
-0.045369741 -0.016515279 -0.014087625
-0.042946123 -0.01595898 -0.0096207447
-0.044616695 -0.017408784 -0.013144092
-0.045466423 -0.017607585 -0.014309788
-0.04591082 -0.017185301 -0.0143074
-0.046153728 -0.01645175 -0.013721412
-0.044651784 -0.017301487 -0.011901168
-0.045603499 -0.017656032 -0.013362367
-0.046048235 -0.017233428 -0.013359977
-0.045988545 -0.016031252 -0.011893987
-0.04552282 -0.014195615 -0.0092429593
-0.044075388 -0.016256111 -0.008886789
-0.046043612 -0.018170204 -0.01329073
-0.046588801 -0.017902903 -0.013580308
-0.046328444 -0.016391013 -0.011529469
-0.045863893 -0.014556618 -0.0088771824
-0.044416461 -0.016617114 -0.008521012
-0.045777164 -0.017597597 -0.011169737
-0.046626095 -0.017796336 -0.01233978
-0.046668343 -0.016750772 -0.011164949
-0.042624623 -0.019257996 -0.0084628528
-0.045671474 -0.01838077 -0.010807611
-0.046218056 -0.018112773 -0.011098801
-0.046965472 -0.018155547 -0.011975817
-0.047209464 -0.017421894 -0.011387377
-0.042965561 -0.01961886 -0.0080972165
-0.0451602 -0.018542932 -0.0092683546
-0.045910262 -0.018585293 -0.010149146
-0.046456963 -0.018317118 -0.0104407
-0.046801779 -0.017738147 -0.010144358
-0.047046114 -0.017002771 -0.0095533896
-0.045602005 -0.019058537 -0.0091980379
-0.046250295 -0.018945191 -0.0097844889
-0.046696052 -0.018521618 -0.0097820936
-0.047041092 -0.017942503 -0.0094853872
-0.047285702 -0.017207002 -0.0088936882
-0.045942292 -0.019418709 -0.008833101
-0.046590321 -0.019305088 -0.0094198305
-0.047036078 -0.018881515 -0.0094174361
-0.047481839 -0.018457942 -0.0094150407
-0.047726687 -0.017723117 -0.0088235158
-0.046383627 -0.019933781 -0.0087629789
-0.047031067 -0.019819811 -0.0093495371
-0.047577124 -0.019551266 -0.0096412841
-0.048022546 -0.019128015 -0.0096388916
-0.048066977 -0.018083289 -0.008458579
-0.047370963 -0.020179572 -0.0089850184
-0.047916893 -0.019910889 -0.0092769042
-0.048562426 -0.019797066 -0.0098623987
-0.048407264 -0.018443463 -0.0080936411
-0.047811244 -0.020693762 -0.0089149177
-0.048456855 -0.020579342 -0.0095006889
-0.049001746 -0.020310814 -0.0097920438
-0.049446654 -0.019888049 -0.0097896541
-0.048251189 -0.02120756 -0.0088448701
-0.048796367 -0.020938691 -0.0091365874
-0.049241442 -0.020515762 -0.0091341967
-0.048690796 -0.021720966 -0.0087748766
-0.049135875 -0.021298038 -0.0087724859
-0.04958095 -0.020875111 -0.0087700952
-0.049375713 -0.021503443 -0.008113998
-0.055504341 -0.028064651 -0.0099806879
-0.055946212 -0.02764477 -0.0099783149
-0.10745623 0.01364511 -0.01893614
-0.055978235 -0.029739583 -0.011367786
-0.056706972 -0.029768746 -0.012235554
-0.05676404 -0.028751977 -0.011072564
-0.056725152 -0.027581647 -0.009614462
-0.10744826 0.011319858 -0.020572383
-0.10788369 0.011733624 -0.020570045
-0.10786512 0.013128651 -0.018863732
-0.10815007 0.013871724 -0.018291693
-0.10767522 0.01626925 -0.014853159
-0.055294722 -0.029617937 -0.009262477
-0.056314532 -0.030095533 -0.011007125
-0.057042893 -0.030124294 -0.011875303
-0.05748326 -0.029705839 -0.011872937
-0.057445794 -0.028539089 -0.010418557
-0.10681254 0.011695584 -0.018228877
-0.1076289 0.011294009 -0.019648764
-0.10776161 0.012361601 -0.018509062
-0.10812227 0.012940137 -0.018221844
-0.10764748 0.015332555 -0.014784289
-0.10755175 0.016912226 -0.012763696
-0.10753223 0.018332707 -0.011022911
-0.054899339 -0.02994567 -0.0080264704
-0.055824805 -0.030273722 -0.0094844922
-0.056266341 -0.029854158 -0.0094821202
-0.05737881 -0.030479841 -0.011515052
-0.059893545 -0.026648421 -0.0097545702
-0.094320484 0.0060651693 -0.0095696356
-0.10377388 0.013127096 -0.011846393
-0.10421393 0.013545236 -0.01184403
-0.10527353 0.012642668 -0.014151865
-0.10601997 0.012401545 -0.015299404
-0.10699318 0.01166995 -0.017301081
-0.10758214 0.011757948 -0.017869385
-0.10794289 0.012336476 -0.017581819
-0.10754345 0.014561756 -0.014427884
-0.10744745 0.016139392 -0.01240635
-0.1074277 0.017558118 -0.010664755
-0.1078684 0.017976889 -0.010662388
-0.10830911 0.01839566 -0.010660021
-0.05498828 -0.031021994 -0.0082520507
-0.055720072 -0.031049777 -0.0091256583
-0.056161612 -0.030630212 -0.0091232862
-0.056410726 -0.029911578 -0.0085371435
-0.059252381 -0.027693266 -0.0091066835
-0.059788853 -0.027424181 -0.0093958722
-0.060324922 -0.027155299 -0.0096848411
-0.061049279 -0.027187414 -0.010555174
-0.061207328 -0.026316807 -0.0096801016
-0.093445785 0.0055215736 -0.0080454648
-0.094215788 0.0052894084 -0.0092109377
-0.095471077 0.0040853247 -0.01211278
-0.09591078 0.0045031481 -0.012110418
-0.10473076 0.011454698 -0.013797684
-0.10516948 0.011871577 -0.013795326
-0.10606966 0.011303932 -0.015517321
-0.10681323 0.011065359 -0.016660232
-0.10732646 0.0113172 -0.016943665
-0.10783929 0.011568851 -0.017226884
-0.10820027 0.012147523 -0.016938971
-0.10741973 0.015200627 -0.012338246
-0.10778286 0.015784379 -0.012046644
-0.10753375 0.017704055 -0.0094312448
-0.10797495 0.018123301 -0.0094288746
-0.10841615 0.018542547 -0.0094265053
-0.10855171 0.019634478 -0.0082570538
-0.055615343 -0.031825833 -0.0087668244
-0.056056883 -0.031406268 -0.0087644532
-0.056594566 -0.031135777 -0.0090537705
-0.059589189 -0.028049758 -0.0087454775
-0.060125533 -0.027780537 -0.0090348022
-0.060566906 -0.027361132 -0.009032432
-0.061102677 -0.027092274 -0.0093215387
-0.061543882 -0.026673026 -0.0093191694
-0.095806487 0.0037303129 -0.011753072
-0.096326947 0.0039864369 -0.012040064
-0.10506541 0.011100487 -0.013438788
-0.10596585 0.010534578 -0.015161586
-0.10655668 0.010623595 -0.015732562
-0.10722283 0.010549286 -0.016588595
-0.10765973 0.010964449 -0.016586248
-0.10809664 0.011379611 -0.016583901
-0.10731547 0.014428084 -0.011981036
-0.10775501 0.014845749 -0.011978674
-0.10765934 0.016427713 -0.0099460762
-0.1077936 0.017515201 -0.0087787397
-0.10823497 0.017934607 -0.0087763686
-0.10867634 0.018354012 -0.0087739974
-0.05639369 -0.031762756 -0.0084032472
-0.056931246 -0.031492133 -0.0086927013
-0.060714491 -0.027416639 -0.008087473
-0.061156198 -0.026996916 -0.0080851
-0.061880436 -0.027029248 -0.0089582363
-0.062321641 -0.026610002 -0.0089558661
-0.095818087 0.0040221522 -0.010233225
-0.097704984 0.0015422381 -0.015424086
-0.098142385 0.0019578671 -0.015421736
-0.10629974 0.010181165 -0.014803499
-0.10681393 0.010433716 -0.015088053
-0.10725149 0.010849501 -0.015085703
-0.10761292 0.011428989 -0.014796445
-0.10721122 0.013655539 -0.011623825
-0.10765076 0.014073205 -0.011621464
-0.055405889 -0.033377942 -0.0080491565
-0.057172038 -0.031699687 -0.0080396691
-0.062123008 -0.027235033 -0.0083055515
-0.062658191 -0.026966223 -0.0085949339
-0.098277457 0.00071022724 -0.015925396
-0.098714367 0.0011253891 -0.015923049
-0.099072047 0.0017003635 -0.01563454
-0.10617343 0.010808947 -0.01271864
-0.10691853 0.010570579 -0.013868334
-0.10720383 0.011314522 -0.013290388
-0.10710696 0.012882994 -0.011266614
-0.10716327 0.014127968 -0.0098138349
-0.06255354 -0.027741689 -0.0082363719
-0.062994748 -0.027322443 -0.0082340008
-0.098690093 0.000198227 -0.015854063
-0.099126831 0.00061323325 -0.015851716
-0.099405453 0.0013474808 -0.015276989
-0.099684477 0.0020828303 -0.014701401
-0.10012188 0.0024984591 -0.014699051
-0.10643131 0.010618566 -0.012071056
-0.1069468 0.010871615 -0.012357389
-0.10707939 0.011945812 -0.011198965
-0.10675103 0.014016894 -0.0082911234
-0.097110756 0.0010894077 -0.011763893
-0.098427646 -0.0002513541 -0.014926483
-0.099023238 -0.00015439134 -0.015496779
-0.099538997 0.00010146103 -0.015780434
-0.09981782 0.00083504984 -0.01520587
-0.10009705 0.0015697391 -0.014630444
-0.10053429 0.0019852123 -0.014628096
-0.10089292 0.0025609408 -0.014338883
-0.10572776 0.0057481648 -0.016033402
-0.106622 0.0051972079 -0.017741378
-0.10682927 0.0060937228 -0.016884835
-0.1057342 0.0097572822 -0.011138445
-0.10555585 0.011489376 -0.0088141514
-0.10661262 0.010591985 -0.011133726
-0.10666795 0.011831694 -0.009681792
-0.058564056 -0.033362076 -0.0081242193
-0.05909998 -0.033091255 -0.0084133418
-0.059445798 -0.032524217 -0.0081194816
-0.097006656 0.00031802684 -0.01140722
-0.098244414 -0.00086064159 -0.014284504
-0.098919645 -0.00092201598 -0.015141844
-0.099514432 -0.00082462368 -0.015711553
-0.09995085 -0.00040992812 -0.015709208
-0.1003086 0.00016382561 -0.015420942
-0.10035178 0.0013765352 -0.013985763
-0.10078917 0.0017921642 -0.013983415
-0.10122658 0.0022077933 -0.013981065
-0.10174228 0.0024631436 -0.014265713
-0.10495705 0.0050490787 -0.014822638
-0.1057009 0.0048203138 -0.01596445
-0.10651872 0.0044318768 -0.017387502
-0.10695416 0.004845643 -0.017385164
-0.1071618 0.0057417639 -0.016528221
-0.10606923 0.0094026709 -0.010779144
-0.1058919 0.011133694 -0.008453765
-0.10656358 0.011058277 -0.0093241781
-0.058995448 -0.033865839 -0.008055185
-0.05943615 -0.033447072 -0.0080528185
-0.09782172 -0.00099344028 -0.012779374
-0.098577932 -0.0012136566 -0.01392682
-0.099726461 -0.0022243306 -0.016498957
-0.10016222 -0.0018102549 -0.016496614
-0.10059799 -0.0013961793 -0.016494274
-0.10072017 -0.00034758687 -0.015349849
-0.10060669 0.0011831862 -0.0133406
-0.10104426 0.0015989712 -0.013338249
-0.10195136 0.0010558919 -0.015056758
-0.10246583 0.0013111955 -0.015340472
-0.1037256 0.0013430893 -0.016762882
-0.1061995 -0.0011527208 -0.022694286
-0.10541545 0.0017880133 -0.018177653
-0.10585024 0.0022011625 -0.018175315
-0.10613263 0.0029333071 -0.017604899
-0.10641544 0.0036665455 -0.017033627
-0.10685087 0.0040803119 -0.017031288
-0.10728631 0.004494078 -0.01702895
-0.10665607 0.0071662799 -0.013020119
-0.10601916 0.0098667182 -0.008968926
-0.10622794 0.010778012 -0.0080933785
-0.10666849 0.011196624 -0.008091012
-0.098593637 -0.00093088835 -0.0124188
-0.10005886 -0.0025761584 -0.016142474
-0.10057308 -0.0023199746 -0.016425254
-0.10116508 -0.0022217932 -0.016992515
-0.10120972 -0.0010171734 -0.01556457
-0.10236231 0.00054414553 -0.014985801
-0.10318667 0.00016355113 -0.016411213
-0.10362227 0.00057747209 -0.016408874
-0.10405788 0.000991393 -0.016406534
-0.10526017 -0.00018100764 -0.019243792
-0.10615046 -0.00071568362 -0.020935101
-0.10620416 0.00048546327 -0.019521929
-0.10663798 0.00089769019 -0.019519597
-0.10661669 0.0022632712 -0.017817296
-0.10674759 0.0033149805 -0.016677411
-0.10703107 0.004049052 -0.016105022
-0.10655224 0.006396926 -0.012664383
-0.10698996 0.0068128672 -0.012662032
-0.10635483 0.0095114382 -0.0086089466
-0.10110629 -0.0017836496 -0.015210166
-0.10230562 0.00098862534 -0.01319501
-0.10313163 0.00060648681 -0.014626442
-0.10318008 0.0018195716 -0.013190313
-0.10377235 0.0019150187 -0.013762125
-0.10436372 0.0020103229 -0.014333081
-0.10632914 -0.00075033377 -0.020016899
-0.10645918 0.00029336588 -0.018884107
-0.10696889 0.00054743339 -0.019164709
-0.10679644 0.0022307022 -0.016892999
-0.10669923 0.0037636461 -0.014893807
-0.10644842 0.0056275721 -0.012308647
-0.10688614 0.0060435133 -0.012306296
-0.1063275 0.0085744681 -0.0085422238
-0.10165374 0.0013387154 -0.010822398
-0.10256118 0.00079520332 -0.012549791
-0.10307638 0.0010510834 -0.012834978
-0.10351361 0.0014665566 -0.012832629
-0.10395084 0.0018820297 -0.012830281
-0.10423339 0.002618056 -0.012252639
-0.10467095 0.003033841 -0.012250289
-0.10472243 0.0042546815 -0.010805913
-0.10498108 0.0063847322 -0.0084826378
-0.10565252 0.0063148234 -0.0093513774
-0.10609173 0.0067321747 -0.0093490183
-0.1063002 0.007638202 -0.0084755514
-0.10198814 0.00098477141 -0.010463771
-0.10289482 0.00044205587 -0.012191974
-0.1034099 0.00069806835 -0.012477294
-0.10384714 0.0011135415 -0.012474945
-0.10420702 0.0016889429 -0.012184925
-0.10456717 0.0022647763 -0.011894687
-0.10500473 0.002680561 -0.011892335
-0.10505683 0.0039007375 -0.010447288
-0.10575619 0.0064475434 -0.0081205685
-0.1061959 0.0068653668 -0.0081182057
-0.10149128 0.001014739 -0.0086587286
-0.10232255 0.00063082727 -0.010105146
-0.10330619 -7.0419803e-05 -0.012121959
-0.10382092 0.00018568881 -0.012407198
-0.10418066 0.00076052645 -0.012117261
-0.10461789 0.0011759996 -0.012114912
-0.10505513 0.0015914728 -0.012112563
-0.10549236 0.0020069459 -0.012110215
-0.10539123 0.0035467935 -0.010088662
-0.10221857 -0.00013968346 -0.0097488752
-0.10304692 -0.00052070868 -0.011190534
-0.10371725 -0.0005825113 -0.012051995
-0.10438609 -0.00064417504 -0.012911522
-0.10497657 -0.00054702716 -0.013482687
-0.10548951 -0.00029131502 -0.013766777
-0.10584906 0.00028205372 -0.013478
-0.10636169 0.00053745572 -0.013762091
-0.10626312 0.0020694041 -0.011750182
-0.062632479 -0.037256088 -0.0081524681
-0.063071683 -0.036838736 -0.0081501082
-0.1027092 -0.00081244495 -0.0099687744
-0.10330293 -0.00071484252 -0.010544077
-0.10389578 -0.00061738648 -0.011118519
-0.10471912 -0.00099666137 -0.012554374
-0.10523255 -0.00074058952 -0.012839025
-0.10582217 -0.00064340583 -0.013410029
-0.10625826 -0.00022902044 -0.013407687
-0.10669434 0.00018536496 -0.013405344
-0.10644362 0.0020365061 -0.010816128
-0.063618444 -0.038628947 -0.009822201
-0.064056501 -0.038212691 -0.0098198485
-0.10296539 -0.0010069072 -0.0093211308
-0.10363683 -0.001068255 -0.010185991
-0.10430677 -0.0011294648 -0.011048906
-0.10505214 -0.0013491476 -0.012197225
-0.10556545 -0.0010929439 -0.01248201
-0.10615482 -0.00099549664 -0.013053282
-0.10659091 -0.00058111124 -0.01305094
-0.107027 -0.00016672585 -0.013048597
-0.10677739 0.0016832261 -0.010458176
-0.10329968 -0.0013607184 -0.0089626396
-0.10397074 -0.0014216678 -0.0098279044
-0.10456307 -0.0013236813 -0.010402882
-0.10507753 -0.0010670068 -0.010688873
-0.10551476 -0.0006515336 -0.010686524
-0.10610527 -0.0005542346 -0.011260213
-0.10615936 0.00065803766 -0.0098161474
-0.10667361 0.00091416121 -0.010102574
-0.10680543 0.0019705619 -0.0089438073
-0.10347835 -0.0013962707 -0.0080243805
-0.10414972 -0.0014572258 -0.0088913534
-0.10474236 -0.0013591392 -0.0094674667
-0.10510299 -0.00078401819 -0.0091759888
-0.10484467 -0.0012355205 -0.0082409503
-0.073308155 -0.039885186 -0.016882049
-0.067648575 -0.045019638 -0.015423293
-0.068082228 -0.044607569 -0.015420963
-0.069591008 -0.045886591 -0.018812867
-0.070022747 -0.045476351 -0.018810546
-0.070720799 -0.045487449 -0.019652084
-0.074350908 -0.043605845 -0.021597641
-0.074781045 -0.043197118 -0.021595331
-0.075557835 -0.043351255 -0.0227095
-0.074246936 -0.040109053 -0.017091637
-0.068372719 -0.048155051 -0.019031992
-0.06880413 -0.047745112 -0.019029675
-0.069146238 -0.047195464 -0.018745946
-0.069488607 -0.04664541 -0.018462004
-0.069920339 -0.046235166 -0.018459685
-0.070352063 -0.045824919 -0.018457366
-0.071049765 -0.045835633 -0.019299293
-0.071569383 -0.045566108 -0.019577978
-0.071912259 -0.045016062 -0.019294661
-0.072343513 -0.044606268 -0.019292345
-0.072774768 -0.044196483 -0.019290028
-0.073556535 -0.044349544 -0.020410482
-0.07424888 -0.04436186 -0.021248074
-0.074679017 -0.043953128 -0.021245765
-0.075455964 -0.044106156 -0.022360448
-0.075885467 -0.043698028 -0.022358138
-0.076314971 -0.043289896 -0.02235583
-0.07561978 -0.041044101 -0.01871117
-0.10489251 -0.0052624624 -0.0085545126
-0.10532974 -0.0048469896 -0.0085521638
-0.066737235 -0.046534061 -0.01386669
-0.068612315 -0.048364092 -0.018397529
-0.069043875 -0.047953997 -0.018395212
-0.06947545 -0.047543906 -0.018392894
-0.06990701 -0.047133815 -0.018390575
-0.070338584 -0.046723723 -0.018388258
-0.070858851 -0.04645367 -0.018667484
-0.071378723 -0.046183817 -0.018946504
-0.071898215 -0.045914162 -0.019225318
-0.072329305 -0.045504529 -0.019223003
-0.07284826 -0.04523522 -0.019501613
-0.073279187 -0.04482574 -0.019499298
-0.074408129 -0.045537606 -0.021736942
-0.074837781 -0.045129325 -0.021734634
-0.075267449 -0.044721052 -0.021732325
-0.075697109 -0.044312771 -0.021730017
-0.076213099 -0.0440448 -0.022006778
-0.076642603 -0.043636672 -0.022004472
-0.076986089 -0.043087941 -0.021723093
-0.076380551 -0.040982451 -0.0183558
-0.10368828 -0.010284453 -0.012238044
-0.10435392 -0.010334972 -0.0130932
-0.10478839 -0.0099221319 -0.013090866
-0.10473733 -0.007229344 -0.0096446462
-0.10525057 -0.0069710356 -0.00993028
-0.10568682 -0.0065564951 -0.0099279368
-0.10566327 -0.0052000047 -0.0081944801
-0.065814361 -0.046027843 -0.010938965
-0.067881376 -0.048146747 -0.016069248
-0.068762571 -0.048433922 -0.017480511
-0.069194466 -0.048023526 -0.01747819
-0.069715537 -0.047752794 -0.017757962
-0.070147261 -0.04734255 -0.017755643
-0.070667796 -0.047072165 -0.018035207
-0.071276434 -0.046941787 -0.018596033
-0.071707688 -0.046532001 -0.018593716
-0.072227061 -0.04626222 -0.01887266
-0.072658151 -0.045852579 -0.018870344
-0.07317698 -0.045583148 -0.019149084
-0.073607907 -0.045173664 -0.019146768
-0.074735872 -0.045884505 -0.021385452
-0.075165533 -0.045476228 -0.021383144
-0.075595193 -0.045067951 -0.021380836
-0.07602486 -0.04465967 -0.021378528
-0.076454513 -0.044251397 -0.021376221
-0.076970227 -0.043983448 -0.021653112
-0.077313833 -0.04343484 -0.021371605
-0.0777435 -0.043026563 -0.021369295
-0.075049914 -0.037480198 -0.011176798
-0.076181218 -0.03594847 -0.010595615
-0.077574484 -0.037128109 -0.013740622
-0.10402007 -0.010635624 -0.011882229
-0.10468534 -0.010685751 -0.012737782
-0.10511979 -0.01027291 -0.012735447
-0.10432517 -0.0073714429 -0.0081353812
-0.10476224 -0.0069561251 -0.0081330324
-0.10550665 -0.0071670027 -0.0092852879
-0.10563637 -0.0061254906 -0.0081283366
-0.066146635 -0.04637954 -0.010582617
-0.067580454 -0.047516048 -0.013726507
-0.068823487 -0.048364323 -0.016279282
-0.06943462 -0.048232745 -0.016842449
-0.069955803 -0.047961835 -0.017122559
-0.070476592 -0.047691122 -0.017402463
-0.071174152 -0.047699761 -0.018245559
-0.072134331 -0.048125863 -0.019928468
-0.072476789 -0.047577772 -0.019645803
-0.072731704 -0.046889715 -0.019082161
-0.073074758 -0.046340562 -0.018798871
-0.073505692 -0.045931075 -0.018796556
-0.073936626 -0.045521591 -0.01879424
-0.074803077 -0.045812443 -0.02019475
-0.075319968 -0.045543622 -0.020472383
-0.075922944 -0.045414854 -0.021029346
-0.076352611 -0.045006573 -0.021027038
-0.07695438 -0.044878293 -0.021583183
-0.077211931 -0.044190019 -0.021022422
-0.077641584 -0.043781742 -0.021020114
-0.078924537 -0.044773836 -0.023801891
-0.079352625 -0.044367053 -0.023799593
-0.075817503 -0.037418 -0.010818245
-0.076252937 -0.037004229 -0.010815906
-0.077471547 -0.037890878 -0.013387932
-0.078164935 -0.037910491 -0.014239898
-0.078598425 -0.037498575 -0.014237569
-0.10473569 -0.0078806067 -0.0080669383
-0.1051726 -0.007465445 -0.0080645913
-0.06611374 -0.046165425 -0.0090752346
-0.067368641 -0.047022976 -0.011657898
-0.069063775 -0.0485739 -0.015642388
-0.069585674 -0.048302557 -0.015923254
-0.070196241 -0.048171028 -0.016486686
-0.070805915 -0.048039693 -0.017049281
-0.072032273 -0.048882157 -0.019578772
-0.072550379 -0.048612103 -0.019856736
-0.072980508 -0.048203371 -0.019854425
-0.073235601 -0.047516286 -0.019291352
-0.073578596 -0.046967771 -0.019008348
-0.073921844 -0.046418846 -0.018725136
-0.074526966 -0.046289191 -0.019284416
-0.075044334 -0.046019997 -0.019562591
-0.075647958 -0.045890778 -0.020120636
-0.076250695 -0.045761753 -0.020677859
-0.076680355 -0.045353472 -0.020675551
-0.077110015 -0.044945199 -0.020673243
-0.077453807 -0.044396743 -0.020391269
-0.077883624 -0.043988317 -0.020388959
-0.079420753 -0.045398049 -0.024006315
-0.07984852 -0.044991568 -0.024004016
-0.076149657 -0.037769563 -0.010462031
-0.077281818 -0.038509868 -0.012749922
-0.078493372 -0.03938885 -0.015307854
-0.078926057 -0.038977694 -0.015305529
-0.079358749 -0.038566541 -0.015303206
-0.06644652 -0.046517648 -0.0087183537
-0.067337632 -0.046810221 -0.010154936
-0.068225436 -0.047101706 -0.011586164
-0.069826238 -0.048512112 -0.015286229
-0.070347853 -0.048240796 -0.015567227
-0.071135238 -0.048388265 -0.016696099
-0.07244835 -0.049368117 -0.019507168
-0.073053665 -0.04923648 -0.020065049
-0.073483482 -0.048828054 -0.020062739
-0.073738754 -0.04814193 -0.019500237
-0.074081682 -0.047594048 -0.019217517
-0.074424863 -0.047045764 -0.018934591
-0.074942276 -0.046776291 -0.019212894
-0.075372569 -0.046367411 -0.019210583
-0.075802863 -0.04595853 -0.019208271
-0.076233156 -0.04554965 -0.019205961
-0.076922037 -0.045560628 -0.020044267
-0.077351853 -0.045152202 -0.020041957
-0.077695861 -0.044603623 -0.019759649
-0.078125842 -0.044195041 -0.01975734
-0.078555815 -0.043786466 -0.01975503
-0.078985795 -0.043377887 -0.01975272
-0.077178843 -0.039272919 -0.012397101
-0.077786259 -0.039147567 -0.012965461
-0.078823425 -0.039738197 -0.014953886
-0.080281243 -0.04103598 -0.018340342
-0.081473485 -0.041899797 -0.020859966
-0.081142783 -0.04021731 -0.018335713
-0.066779286 -0.04686987 -0.0083614718
-0.067488298 -0.046879519 -0.0092235301
-0.068105228 -0.04674802 -0.0097963829
-0.068991594 -0.047039624 -0.011228279
-0.069964148 -0.047470525 -0.012939991
-0.071287431 -0.048458137 -0.015777478
-0.072249144 -0.048883345 -0.017468974
-0.073381528 -0.049583506 -0.019713428
-0.073811345 -0.04917508 -0.01971112
-0.074241176 -0.04876665 -0.01970881
-0.07458403 -0.048219405 -0.019426377
-0.074927136 -0.047671758 -0.019143736
-0.075270511 -0.047123704 -0.018860888
-0.075700797 -0.04671482 -0.018858576
-0.076131098 -0.046305943 -0.018856265
-0.076561384 -0.045897059 -0.018853953
-0.076991685 -0.045488182 -0.018851642
-0.077679724 -0.045499228 -0.01969034
-0.07810954 -0.045090802 -0.019688031
-0.078539357 -0.044682372 -0.019685723
-0.078883804 -0.044133622 -0.019403281
-0.080179073 -0.041793112 -0.017990258
-0.081540249 -0.04293564 -0.02106946
-0.082053334 -0.042668566 -0.021346059
-0.082482211 -0.042261038 -0.021343755
-0.081902154 -0.040155776 -0.017981
-0.082164221 -0.039461721 -0.01741571
-0.067729972 -0.047090188 -0.008578998
-0.06825646 -0.046817273 -0.0088647092
-0.068872817 -0.046685819 -0.0094378293
-0.069757752 -0.046977535 -0.010870393
-0.0707286 -0.047408577 -0.012582905
-0.072049052 -0.048396423 -0.015421715
-0.073272176 -0.049238324 -0.017958485
-0.074139223 -0.049522109 -0.019359501
-0.074655972 -0.049252123 -0.01963724
-0.075085633 -0.048843842 -0.019634932
-0.07542868 -0.048296824 -0.019352576
-0.075771973 -0.047749404 -0.019070009
-0.076115526 -0.047201585 -0.018787237
-0.076545663 -0.046792854 -0.018784927
-0.076889619 -0.046244476 -0.018501943
-0.077319913 -0.045835596 -0.018499633
-0.077750213 -0.045426715 -0.018497322
-0.078180507 -0.045017835 -0.01849501
-0.078781813 -0.044889357 -0.019053843
-0.079211794 -0.044480778 -0.019051533
-0.079726867 -0.044212546 -0.019329485
-0.080326378 -0.044084806 -0.019887084
-0.081269816 -0.043409038 -0.020162117
-0.081951611 -0.043422356 -0.020997519
-0.082380489 -0.043014828 -0.020995216
-0.082809351 -0.042607304 -0.020992912
-0.082230754 -0.040503573 -0.017628603
-0.082577325 -0.039952062 -0.017344775
-0.1167587 -0.013195888 -0.024425192
-0.11739758 -0.013242272 -0.025251029
-0.11761235 -0.012384715 -0.024420606
-0.11796872 -0.011827952 -0.024141865
-0.068588868 -0.0471691 -0.0085082278
-0.069204971 -0.047037385 -0.0090816142
-0.069909938 -0.047046829 -0.0099412585
-0.070613325 -0.047056254 -0.01079898
-0.072113641 -0.048326757 -0.014217749
-0.072898701 -0.048474148 -0.015349039
-0.074118562 -0.049315482 -0.017885113
-0.074983716 -0.049599022 -0.01928575
-0.075499974 -0.049329102 -0.019563412
-0.076015845 -0.04905938 -0.01984087
-0.076272704 -0.048374187 -0.019278826
-0.07661619 -0.047826998 -0.018996337
-0.076959923 -0.047279406 -0.018713642
-0.077389903 -0.046870828 -0.018711332
-0.077819876 -0.046462249 -0.018709023
-0.078249857 -0.04605367 -0.018706713
-0.078508735 -0.045365248 -0.018143002
-0.079024449 -0.045096494 -0.018421495
-0.079624914 -0.044968002 -0.018980175
-0.080647811 -0.045538224 -0.020934843
-0.08225137 -0.04707519 -0.024816437
-0.082844429 -0.046946339 -0.025365746
-0.082771219 -0.04570993 -0.023706228
-0.083198354 -0.045304045 -0.023703935
-0.083625503 -0.044898164 -0.02370164
-0.083136499 -0.042953566 -0.020642068
-0.082475103 -0.040709473 -0.01699456
-0.089493707 -0.044726044 -0.030538706
-0.089916967 -0.044323847 -0.03053643
-0.090340242 -0.043921642 -0.030534158
-0.11687009 -0.014396793 -0.02490682
