# .PCD v0.7 - Point Cloud Data file format
VERSION 0.7
FIELDS x y z
SIZE 4 4 4
TYPE F F F
COUNT 1 1 1
WIDTH 1250
HEIGHT 1
VIEWPOINT 0 0 0 1 0 0 0
POINTS 1250
DATA ascii
-0.074447393 -0.064838782 -0.097566701
-0.074822396 -0.06515035 -0.097742729
-0.075030565 -0.065670088 -0.098329946
-0.0753216 -0.066084966 -0.098710865
-0.075779021 -0.066291742 -0.098680981
-0.076236442 -0.066498511 -0.098651096
-0.076861389 -0.066497698 -0.098210342
-0.077151284 -0.066912055 -0.098591335
-0.077608712 -0.067118831 -0.098561451
-0.07831879 -0.067014694 -0.097914986
-0.078945622 -0.067014195 -0.097473368
-0.12371761 -0.026019074 -0.0081134159
-0.12390184 -0.026650308 -0.0088748457
-0.12442113 -0.026885046 -0.0088409204
-0.12527712 -0.026724035 -0.0080115339
-0.12672378 -0.027560757 -0.0081750294
-0.12701757 -0.028058734 -0.0086712977
-0.12764993 -0.028162064 -0.0083723469
-0.12805615 -0.028528208 -0.008603449
-0.12846208 -0.028894093 -0.0088343872
-0.12886772 -0.029259719 -0.0090651615
-0.12915957 -0.02975579 -0.0095600989
-0.12979181 -0.029859575 -0.0092618847
-0.13008292 -0.030355047 -0.0097565083
-0.1304874 -0.030719642 -0.0099866306
-0.13055016 -0.031473711 -0.011006913
-0.13106762 -0.031707622 -0.010973108
-0.13158506 -0.031941533 -0.010939304
-0.13176014 -0.032563616 -0.011694257
-0.1321629 -0.032926399 -0.011923048
-0.13245122 -0.033417795 -0.012413883
-0.13273913 -0.033908498 -0.012904025
-0.13348393 -0.033884626 -0.012346415
-0.1340003 -0.034118038 -0.012312681
-0.13451666 -0.034351457 -0.012278948
-0.13468827 -0.03496968 -0.013030895
-0.13508916 -0.035330858 -0.013258734
-0.13583511 -0.035308003 -0.012701766
-0.13623573 -0.035669185 -0.012929801
-0.13652067 -0.036157787 -0.013419065
-0.13680521 -0.036645703 -0.01390764
-0.13708936 -0.037132934 -0.01439553
-0.13714242 -0.037872996 -0.015402839
-0.13765644 -0.038105346 -0.015369259
-0.13805488 -0.038464162 -0.015595481
-0.13799116 -0.039327003 -0.016858254
-0.13850409 -0.039558869 -0.016824743
-0.13901703 -0.039790731 -0.016791236
-0.13952996 -0.040022593 -0.016757725
-0.13957943 -0.040756036 -0.017758217
-0.13986005 -0.041237678 -0.018240694
-0.14037192 -0.041469056 -0.018207254
-0.14076772 -0.04182519 -0.018431539
-0.14127941 -0.042056493 -0.018398112
-0.14179109 -0.042287789 -0.018364685
-0.14206988 -0.042767856 -0.018846236
-0.1424647 -0.043123171 -0.019070063
-0.14297584 -0.043354224 -0.019036671
-0.1433702 -0.043709211 -0.019260352
-0.14376429 -0.044063944 -0.019483881
-0.14380768 -0.044788703 -0.020476403
-0.14408419 -0.045265533 -0.020954981
-0.14447707 -0.045618866 -0.021177376
-0.1449866 -0.0458492 -0.021144086
-0.14549616 -0.046079531 -0.021110797
-0.1460057 -0.046309866 -0.02107751
-0.14616309 -0.046907488 -0.021810379
-0.14655471 -0.047259763 -0.02203217
-0.1467113 -0.047855567 -0.022763031
-0.14710219 -0.048207022 -0.022984182
-0.14737536 -0.048679672 -0.0234592
-0.14717917 -0.04963557 -0.024946524
-0.14756866 -0.049985319 -0.025166232
-0.14772353 -0.050575633 -0.025890572
-0.14752726 -0.051524326 -0.027367752
-0.14803226 -0.051752597 -0.027334761
-0.14853725 -0.051980868 -0.027301772
-0.14869061 -0.052567296 -0.028021663
-0.14896072 -0.053033531 -0.028489791
-0.1493476 -0.053380314 -0.028707152
-0.14973424 -0.053726852 -0.028924363
-0.149886 -0.054310072 -0.029640855
-0.15003747 -0.054892093 -0.030355876
-0.1501886 -0.055472914 -0.031069428
-0.15057361 -0.055817556 -0.031285089
-0.15119304 -0.05592696 -0.031003809
-0.15169525 -0.056153979 -0.030970998
-0.15184455 -0.056732915 -0.031683188
-0.15187611 -0.057427488 -0.032641411
-0.15190761 -0.058120161 -0.033597019
-0.15205613 -0.058694914 -0.034303851
-0.15232146 -0.059152696 -0.034763392
-0.15282094 -0.059378475 -0.034730762
-0.053793103 -0.015981708 -0.042108264
-0.052547798 -0.01892285 -0.047143064
-0.05271285 -0.019659275 -0.048067842
-0.053124741 -0.020010639 -0.048274428
-0.053123936 -0.020998996 -0.049672157
-0.053287607 -0.021729911 -0.050590124
-0.053450834 -0.022458864 -0.051505622
-0.053778086 -0.022933722 -0.051946394
-0.053693887 -0.024036454 -0.053564556
-0.05369195 -0.025009161 -0.054940969
-0.053282008 -0.026598666 -0.057476673
-0.053280901 -0.027560784 -0.058837529
-0.053523473 -0.028150305 -0.059500042
-0.053928267 -0.028493034 -0.059699416
-0.054007158 -0.029325837 -0.060821123
-0.054248285 -0.029911855 -0.061479703
-0.054407656 -0.030618455 -0.062366322
-0.054323278 -0.031686764 -0.063935943
-0.05432013 -0.032629676 -0.065271087
-0.054559361 -0.03320859 -0.065920956
-0.054959964 -0.033546399 -0.066116326
-0.054955576 -0.034482569 -0.067442819
-0.054790001 -0.035652868 -0.069213808
-0.055188563 -0.035988219 -0.069407143
-0.055425465 -0.036560256 -0.070048936
-0.055904083 -0.03677661 -0.070017673
-0.056140054 -0.037347317 -0.070658237
-0.056375556 -0.03791691 -0.071297549
-0.056691431 -0.038367949 -0.071712665
-0.056926019 -0.03893562 -0.072349906
-0.056917839 -0.039852481 -0.073651768
-0.057232235 -0.04030066 -0.07406389
-0.057627037 -0.040632002 -0.074254215
-0.057940666 -0.041079234 -0.074665524
-0.058172975 -0.041641701 -0.07529702
-0.05824317 -0.04243388 -0.076367423
-0.058636241 -0.04276336 -0.076556325
-0.058867205 -0.043322559 -0.077184148
-0.059178621 -0.043766037 -0.077591725
-0.059489626 -0.044208948 -0.077998772
-0.059881285 -0.044537004 -0.078186661
-0.060029406 -0.045207039 -0.079029515
-0.06042026 -0.045534249 -0.079216771
-0.060648538 -0.046088438 -0.079839408
-0.060876373 -0.046641562 -0.080460846
-0.061022699 -0.047306538 -0.081297815
-0.061330736 -0.047744621 -0.081700139
-0.061557259 -0.048294559 -0.082318
-0.061702289 -0.048955504 -0.083150178
-0.06209011 -0.049279425 -0.083334923
-0.062477682 -0.049603134 -0.083519548
-0.062621258 -0.050261147 -0.084348604
-0.063008048 -0.050584026 -0.084532611
-0.063150719 -0.05123974 -0.085359044
-0.063536718 -0.051561795 -0.085542433
-0.063516095 -0.052435916 -0.086792648
-0.063901126 -0.052756879 -0.086975172
-0.064042121 -0.053407334 -0.087795362
-0.064507678 -0.053617779 -0.087764956
-0.064973228 -0.053828225 -0.087734535
-0.065438785 -0.054038674 -0.087704122
-0.066067986 -0.054029923 -0.087248579
-0.066451833 -0.054350071 -0.087430783
-0.066343948 -0.055325136 -0.088885158
-0.066644914 -0.05575287 -0.089277834
-0.06702736 -0.056071457 -0.089458823
-0.067409568 -0.056389842 -0.089639693
-0.067873649 -0.056599624 -0.089609385
-0.068009004 -0.057242349 -0.090422615
-0.068308152 -0.057667788 -0.090813331
-0.068524778 -0.058200356 -0.091413595
-0.068741009 -0.05873191 -0.092012726
-0.069121107 -0.059048157 -0.092192054
-0.069254331 -0.059685167 -0.092998713
-0.06938722 -0.060320571 -0.093803339
-0.069766052 -0.060635421 -0.093981601
-0.070062399 -0.061056327 -0.094367869
-0.070852809 -0.06083937 -0.093504459
-0.07131397 -0.061047833 -0.093474329
-0.071609534 -0.061468743 -0.093861163
-0.071821965 -0.061995056 -0.09445554
-0.072199553 -0.062308982 -0.094633378
-0.072328381 -0.062939309 -0.095433682
-0.072126493 -0.063987941 -0.097058252
-0.072585061 -0.064195231 -0.097028293
-0.07304363 -0.064402521 -0.096998334
-0.073253661 -0.06492345 -0.097586811
-0.07371179 -0.065130539 -0.097556874
-0.073921002 -0.065650299 -0.09814427
-0.074378707 -0.065857202 -0.098114371
-0.074753255 -0.06616807 -0.098290011
-0.075210825 -0.066374898 -0.09826012
-0.075751834 -0.066477902 -0.098024666
-0.076293185 -0.066580974 -0.097789072
-0.076751031 -0.066787936 -0.097759165
-0.077041082 -0.067202248 -0.098140538
-0.077582665 -0.067305505 -0.097905062
-0.12390508 -0.026833577 -0.0080660647
-0.12420087 -0.027332067 -0.0085624103
-0.1267973 -0.028505754 -0.0083927866
-0.12731659 -0.028740492 -0.0083588623
-0.12772278 -0.029106302 -0.008589888
-0.12801556 -0.029602658 -0.0090853358
-0.12842107 -0.029967776 -0.0093158577
-0.12882629 -0.030332634 -0.0095462175
-0.12934467 -0.030566955 -0.0095123537
-0.12974942 -0.030931475 -0.0097425636
-0.12981321 -0.031685248 -0.010763191
-0.13033065 -0.031919155 -0.010729386
-0.13084811 -0.03215307 -0.01069558
-0.13125163 -0.032516383 -0.010924966
-0.13154088 -0.033008587 -0.011417022
-0.13194373 -0.033371218 -0.011645911
-0.13223219 -0.033862296 -0.01213694
-0.1324062 -0.034481037 -0.012889037
-0.13292202 -0.034714207 -0.012855339
-0.13378128 -0.034562543 -0.01203574
-0.13429764 -0.034795955 -0.012002005
-0.13458425 -0.035285689 -0.012492439
-0.13487044 -0.035774734 -0.012982181
-0.13561624 -0.035752192 -0.012425019
-0.13590172 -0.036240906 -0.012914809
-0.13630204 -0.03660151 -0.01314261
-0.13658673 -0.037089117 -0.013631379
-0.13687101 -0.037576035 -0.014119464
-0.13703962 -0.038188919 -0.014867102
-0.1375538 -0.038421351 -0.014833511
-0.13795242 -0.038780179 -0.015059999
-0.13777359 -0.039768551 -0.01658315
-0.13817115 -0.040126029 -0.016808476
-0.13879946 -0.040232282 -0.016516132
-0.13931239 -0.040464144 -0.016482623
-0.13970941 -0.040821381 -0.016707981
-0.13964294 -0.041678302 -0.01796617
-0.14003901 -0.042034365 -0.018190537
-0.14055069 -0.042265665 -0.01815711
-0.14106238 -0.042496964 -0.018123683
-0.14157405 -0.04272826 -0.018090254
-0.14208575 -0.042959556 -0.018056827
-0.14236431 -0.043439161 -0.018538592
-0.14287564 -0.043670297 -0.018505188
-0.14315346 -0.044149067 -0.018986305
-0.14354762 -0.044503652 -0.019209929
-0.14335825 -0.045473907 -0.0207149
-0.14375138 -0.045827169 -0.020937378
-0.14426093 -0.046057504 -0.020904088
-0.14477047 -0.046287835 -0.020870799
-0.14528003 -0.046518169 -0.020837514
-0.14578956 -0.046748504 -0.020804225
-0.14594719 -0.047345668 -0.021537378
-0.14622164 -0.047819734 -0.022014223
-0.1464957 -0.048293136 -0.022490408
-0.14688666 -0.048644442 -0.022711655
-0.14727734 -0.048995506 -0.022932747
-0.14708129 -0.04995108 -0.024421677
-0.14747095 -0.050300844 -0.024641644
-0.14774312 -0.050770737 -0.025114205
-0.14789774 -0.051360033 -0.025838349
-0.14781806 -0.052187305 -0.027063921
-0.14808905 -0.052654289 -0.02753319
-0.14847665 -0.053001557 -0.027751105
-0.14898109 -0.053229593 -0.027718147
-0.14925101 -0.053695373 -0.028186483
-0.14952055 -0.054160513 -0.028654175
-0.14967254 -0.05474329 -0.029370947
-0.14982422 -0.055324864 -0.030086245
-0.14997558 -0.055905242 -0.030800072
-0.15036066 -0.056249734 -0.031015823
-0.15098001 -0.056359287 -0.030734453
-0.15148224 -0.056586307 -0.030701643
-0.15151432 -0.057281792 -0.031662192
-0.1516636 -0.05785878 -0.032372698
-0.15192984 -0.058318224 -0.03283466
-0.15184411 -0.059125178 -0.034035783
-0.15175867 -0.059929393 -0.03523282
-0.15202376 -0.060385551 -0.035690948
-0.15252239 -0.060610954 -0.035658374
-0.052585196 -0.018963877 -0.046157748
-0.05283289 -0.019572848 -0.046845179
-0.053162664 -0.020052698 -0.04729192
-0.053326774 -0.020787103 -0.048215877
-0.053243205 -0.021900445 -0.049850971
-0.053242169 -0.022882346 -0.051241778
-0.053734109 -0.023104722 -0.05120964
-0.053649951 -0.024207789 -0.05283061
-0.053812094 -0.024930753 -0.053739753
-0.053401172 -0.026522661 -0.056283232
-0.053399827 -0.027486211 -0.057648279
-0.053561173 -0.028199783 -0.058544688
-0.053803459 -0.028788669 -0.059207492
-0.054208163 -0.029131185 -0.059406966
-0.054042652 -0.030329177 -0.061219696
-0.054202296 -0.031035228 -0.062106654
-0.054118387 -0.032102577 -0.063676879
-0.054115646 -0.03304467 -0.065012537
-0.054435909 -0.033503059 -0.065435603
-0.054755747 -0.033960845 -0.065858118
-0.054832533 -0.034776777 -0.066959068
-0.05458672 -0.036065418 -0.06895677
-0.054985352 -0.036400635 -0.069150195
-0.055222452 -0.036972269 -0.069792233
-0.055620354 -0.037306756 -0.069985129
-0.056098815 -0.037523039 -0.069953874
-0.056415386 -0.037975065 -0.070370547
-0.056569759 -0.038661506 -0.071233459
-0.056804538 -0.039229073 -0.071871385
-0.056554802 -0.040495109 -0.073839843
-0.056949824 -0.040826391 -0.074030243
-0.057425339 -0.041041344 -0.073999174
-0.057739098 -0.041488312 -0.074410662
-0.057971604 -0.042050377 -0.075042397
-0.058042124 -0.042841896 -0.076113209
-0.058435261 -0.043171246 -0.076302201
-0.058504898 -0.043959424 -0.077368915
-0.05889713 -0.044287775 -0.077557132
-0.059370037 -0.044501547 -0.077526227
-0.059761856 -0.044829614 -0.077714331
-0.059748281 -0.045727134 -0.078994535
-0.060220122 -0.045940425 -0.078963712
-0.060448591 -0.046494227 -0.079586595
-0.060595606 -0.047160029 -0.080425486
-0.060904209 -0.04759863 -0.080828756
-0.061131362 -0.048149239 -0.081448048
-0.061358079 -0.048698787 -0.082066149
-0.061503366 -0.049359217 -0.082898654
-0.06189125 -0.049683005 -0.083083473
-0.06195464 -0.050452497 -0.084128134
-0.062422719 -0.050664086 -0.084097557
-0.062809564 -0.050986834 -0.084281638
-0.062871374 -0.051752776 -0.085322395
-0.06317617 -0.0521851 -0.085719466
-0.063561797 -0.052506551 -0.085902564
-0.063784607 -0.0530481 -0.086512096
-0.063925795 -0.053698391 -0.087333135
-0.064310201 -0.054018542 -0.087515257
-0.064775757 -0.054228988 -0.087484851
-0.065241307 -0.054439437 -0.087454431
-0.065706864 -0.054649882 -0.087424017
-0.066008799 -0.05507886 -0.087818377
-0.066065185 -0.055833958 -0.088847592
-0.066447936 -0.056152619 -0.089028776
-0.066830449 -0.05647108 -0.089209847
-0.067212723 -0.056789342 -0.089390799
-0.067676805 -0.056999121 -0.089360483
-0.067894444 -0.057533331 -0.089963265
-0.067947663 -0.058281928 -0.090985522
-0.068082571 -0.058920909 -0.091794968
-0.068462886 -0.059237096 -0.091974363
-0.068925068 -0.059446014 -0.091944173
-0.068894491 -0.060295913 -0.093168929
-0.069355801 -0.06050444 -0.093138792
-0.069817111 -0.060712967 -0.093108661
-0.070278421 -0.060921494 -0.093078524
-0.070739724 -0.061130021 -0.093048386
-0.071118362 -0.061444815 -0.093226999
-0.071414046 -0.061865479 -0.093613982
-0.071544021 -0.06249715 -0.094416574
-0.071097031 -0.063863233 -0.096665792
-0.071144678 -0.064594001 -0.097666733
-0.071602672 -0.06480103 -0.097636819
-0.072143055 -0.064903639 -0.097400956
-0.072601199 -0.065110736 -0.097371027
-0.072976656 -0.065422118 -0.097547047
-0.073269151 -0.065837413 -0.097928688
-0.073726863 -0.066044308 -0.097898789
-0.074101612 -0.066355117 -0.098074496
-0.074559174 -0.066561952 -0.098044604
-0.075016737 -0.066768788 -0.098014712
-0.076059081 -0.066248283 -0.096542686
-0.076266289 -0.066767484 -0.097131588
-0.076724425 -0.06697458 -0.097101651
-0.076847002 -0.067596138 -0.097895131
-0.077304564 -0.067802973 -0.097865239
-0.1239806 -0.027779089 -0.0082838992
-0.12449989 -0.028013827 -0.0082499748
-0.12709633 -0.029187514 -0.0080803521
-0.12727679 -0.029814716 -0.0088410089
-0.12768257 -0.030179758 -0.0090716183
-0.12808804 -0.030544542 -0.0093020638
-0.12849323 -0.030909069 -0.0095323473
-0.12889814 -0.031273339 -0.0097624687
-0.12930278 -0.031637348 -0.0099924272
-0.12959372 -0.032130692 -0.010485661
-0.13011117 -0.032364599 -0.010451857
-0.13051493 -0.032727845 -0.010681328
-0.13069108 -0.033348873 -0.011436289
-0.13120781 -0.033582456 -0.011402532
-0.13138305 -0.034201927 -0.012155933
-0.13189924 -0.034435257 -0.012122211
-0.13184604 -0.035309121 -0.013396853
-0.1324752 -0.0354142 -0.013101873
-0.13321905 -0.035391413 -0.012544991
-0.13373488 -0.035624579 -0.012511293
-0.13436536 -0.035729881 -0.012215692
-0.1347665 -0.036090914 -0.012443897
-0.13539737 -0.036196381 -0.012148271
-0.135683 -0.036684789 -0.012638257
-0.13608339 -0.037045229 -0.012866153
-0.13636824 -0.037532523 -0.013355119
-0.13665269 -0.038019136 -0.013843396
-0.13682152 -0.038631551 -0.014591326
-0.1373357 -0.038863983 -0.014557733
-0.13761897 -0.039348807 -0.015044314
-0.13755602 -0.040210102 -0.016308051
-0.13783844 -0.040692799 -0.016792217
-0.13835101 -0.040924501 -0.016758731
-0.13897917 -0.041030996 -0.016466474
-0.13949192 -0.041262776 -0.016432976
-0.13954143 -0.041994229 -0.017433571
-0.13982198 -0.04247484 -0.017916108
-0.14033367 -0.042706136 -0.017882679
-0.14084534 -0.042937431 -0.017849253
-0.14182246 -0.042671051 -0.01678299
-0.14198512 -0.043275822 -0.017524447
-0.14249697 -0.0435072 -0.017491007
-0.14277536 -0.043986585 -0.017973335
-0.14317007 -0.044341594 -0.018197546
-0.14333096 -0.044943355 -0.018935977
-0.14337495 -0.045666888 -0.019929262
-0.14353524 -0.046265803 -0.02066409
-0.1440448 -0.046496134 -0.020630805
-0.14455435 -0.046726473 -0.020597516
-0.14506389 -0.046956807 -0.020564226
-0.14510536 -0.047675788 -0.021552842
-0.14561419 -0.047905799 -0.021519598
-0.14600587 -0.048257608 -0.021741411
-0.14651453 -0.04848754 -0.021708181
-0.1467884 -0.048960485 -0.022184579
-0.1469446 -0.049553905 -0.02291452
-0.14698333 -0.050266806 -0.023896465
-0.1474904 -0.050496031 -0.023863338
-0.14764549 -0.051086422 -0.024589779
-0.14780027 -0.051675595 -0.025314715
-0.14737037 -0.05286058 -0.027295506
-0.1477582 -0.053207777 -0.0275135
-0.14826266 -0.053435814 -0.027480545
-0.14900151 -0.053425919 -0.026945444
-0.14915434 -0.054010652 -0.027665457
-0.14942405 -0.05447574 -0.028133666
-0.14945908 -0.055176508 -0.029101036
-0.14961098 -0.055757638 -0.029816613
-0.14976256 -0.056337569 -0.030530715
-0.15014771 -0.056681912 -0.030746561
-0.1505326 -0.057026021 -0.030962257
-0.15091723 -0.057369892 -0.031177806
-0.15130161 -0.057713527 -0.031393204
-0.1514511 -0.058290072 -0.032103989
-0.15171747 -0.058749218 -0.03256613
-0.15174915 -0.059439622 -0.03352119
-0.15189771 -0.060012635 -0.034227621
-0.1523972 -0.060238417 -0.034194987
-0.05212779 -0.019775243 -0.046611987
-0.052540433 -0.020127045 -0.046819348
-0.053035364 -0.020350771 -0.046787012
-0.053199705 -0.021085024 -0.047711961
-0.053198751 -0.022071211 -0.049110826
-0.053033501 -0.023305826 -0.050977934
-0.053525444 -0.023528203 -0.050945796
-0.053770367 -0.0241281 -0.051623348
-0.053932562 -0.024852136 -0.052535325
-0.053438917 -0.026570726 -0.055320524
-0.053274512 -0.027782297 -0.057154361
-0.053680468 -0.028126059 -0.05735505
-0.053841442 -0.028838782 -0.058251847
-0.054083452 -0.029427033 -0.058914945
-0.05383702 -0.030746501 -0.060959689
-0.053996935 -0.031451996 -0.061846994
-0.053994428 -0.03239755 -0.063189343
-0.053991925 -0.03333937 -0.064526409
-0.054393243 -0.033677578 -0.064722486
-0.05471332 -0.03413555 -0.065145746
-0.054628659 -0.035190541 -0.066701278
-0.054383442 -0.036477972 -0.06869974
-0.054540817 -0.037167925 -0.069566801
-0.055019435 -0.037384283 -0.069535539
-0.055336811 -0.037836552 -0.069952622
-0.055895869 -0.037934914 -0.069697261
-0.056212571 -0.038386676 -0.070114098
-0.056448005 -0.038955253 -0.070753947
-0.056602184 -0.039639745 -0.071615517
-0.05635304 -0.040904582 -0.073584728
-0.056748126 -0.041235734 -0.073775209
-0.05722364 -0.041450679 -0.073744141
-0.057618316 -0.041781548 -0.07393451
-0.057770234 -0.042459056 -0.074787781
-0.057760455 -0.043364946 -0.076079026
-0.058153559 -0.043694012 -0.076267958
-0.058223624 -0.044481099 -0.077334389
-0.058696538 -0.044694871 -0.077303492
-0.059088573 -0.045022871 -0.077491671
-0.059561327 -0.045236576 -0.077460788
-0.059548136 -0.046133317 -0.078741468
-0.060019981 -0.046346609 -0.078710645
-0.060248643 -0.046900012 -0.079333767
-0.060395911 -0.047565296 -0.080172986
-0.060704648 -0.048003636 -0.080576427
-0.060931992 -0.048553854 -0.081195951
-0.061158903 -0.049103014 -0.081814304
-0.061304439 -0.049762931 -0.082647122
-0.061692387 -0.050086591 -0.082832031
-0.061837018 -0.050744195 -0.083662227
-0.062224176 -0.051067024 -0.083846509
-0.062611081 -0.05138965 -0.08403068
-0.062673204 -0.052154947 -0.085071824
-0.062978134 -0.052587014 -0.08546906
-0.06336382 -0.052908331 -0.08565224
-0.063749261 -0.053229447 -0.085835308
-0.063971817 -0.053770136 -0.086444706
-0.064193964 -0.0543098 -0.087052941
-0.064578287 -0.054629754 -0.087235153
-0.065043829 -0.054840203 -0.087204739
-0.065427765 -0.055159889 -0.087386847
-0.065811448 -0.05547937 -0.087568842
-0.065868147 -0.056233834 -0.08859846
-0.066250972 -0.056552369 -0.088779718
-0.066633545 -0.056870706 -0.088960864
-0.067015879 -0.057188835 -0.089141898
-0.067479961 -0.057398617 -0.089111581
-0.067697786 -0.057932448 -0.089714602
-0.067751311 -0.058680419 -0.090737253
-0.067886472 -0.059318893 -0.091547012
-0.068266846 -0.059634954 -0.091726489
-0.068646982 -0.059950814 -0.091905855
-0.068944782 -0.060373209 -0.092294402
-0.069160134 -0.060901545 -0.09289138
-0.069621436 -0.061110076 -0.092861243
-0.070495106 -0.060786236 -0.091785111
-0.070957147 -0.060995091 -0.091754928
-0.070922755 -0.061841801 -0.092979662
-0.070559241 -0.063107364 -0.095030665
-0.070443749 -0.064050749 -0.09644974
-0.070492417 -0.064781226 -0.097451016
-0.070868418 -0.065092623 -0.097626969
-0.071326263 -0.065299585 -0.097597063
-0.071784116 -0.065506555 -0.097567149
-0.072241969 -0.065713517 -0.097537242
-0.0726173 -0.06602452 -0.097713113
-0.073075004 -0.066231422 -0.097683206
-0.073449962 -0.066542171 -0.09785898
-0.074322514 -0.066229448 -0.096799396
-0.074780799 -0.066436604 -0.096769452
-0.075239077 -0.066643767 -0.096739516
-0.075948268 -0.066538997 -0.096090131
-0.076613918 -0.067265242 -0.096649706
-0.07682047 -0.067783162 -0.097238131
-0.077530473 -0.067679569 -0.096589819
-0.1267633 -0.029765375 -0.0080669755
-0.12705676 -0.030261263 -0.008562794
-0.1275755 -0.030495752 -0.008528905
-0.12775525 -0.031120904 -0.0092882803
-0.1280475 -0.031614959 -0.0097823609
-0.12856531 -0.031849034 -0.0097485315
-0.12908313 -0.032083105 -0.0097147021
-0.12948754 -0.032446705 -0.0099445973
-0.12989169 -0.032810047 -0.010174328
-0.13018201 -0.033302214 -0.010667088
-0.13024504 -0.034051061 -0.011684257
-0.13076141 -0.034284472 -0.011650523
-0.13116409 -0.034646269 -0.011879088
-0.13133919 -0.03526397 -0.012631193
-0.13151392 -0.035880364 -0.013381713
-0.13202901 -0.036113206 -0.013348063
-0.13288611 -0.03596323 -0.012530135
-0.13351609 -0.036068615 -0.012234644
-0.13403191 -0.03630178 -0.012200946
-0.13454771 -0.03653495 -0.012167248
-0.13506354 -0.03676812 -0.01213355
-0.13557936 -0.037001289 -0.012099852
-0.13609517 -0.037234459 -0.012066155
-0.13626494 -0.03784899 -0.012817533
-0.13654956 -0.038335547 -0.013306359
-0.13660342 -0.039074186 -0.014315549
-0.13711759 -0.039306618 -0.014281956
-0.13751638 -0.039665133 -0.014508639
-0.13733846 -0.040651653 -0.016032947
-0.13762103 -0.041134041 -0.016517308
-0.1381336 -0.041365743 -0.016483821
-0.13864619 -0.041597441 -0.016450334
-0.13915876 -0.041829146 -0.01641685
-0.13932425 -0.042435005 -0.01715895
-0.13972056 -0.042790931 -0.017383678
-0.14023243 -0.043022308 -0.01735024
-0.1407443 -0.04325369 -0.0173168
-0.14160514 -0.04311214 -0.016508175
-0.14188443 -0.043592304 -0.016991695
-0.14239646 -0.043823764 -0.016958244
-0.1425584 -0.044426903 -0.017699001
-0.14283654 -0.044905316 -0.018180849
-0.1431143 -0.045383062 -0.018662024
-0.1431586 -0.046105985 -0.019655691
-0.14343557 -0.046581898 -0.020134838
-0.14382866 -0.046934772 -0.020357518
-0.14433821 -0.047165107 -0.02032423
-0.14484777 -0.047395438 -0.020290941
-0.1447728 -0.04823561 -0.021535061
-0.14516461 -0.048587181 -0.021756792
-0.14579011 -0.048695479 -0.021468598
-0.14629878 -0.048925415 -0.021435369
-0.14680745 -0.049155351 -0.021402139
-0.14661208 -0.050111916 -0.022896307
-0.14688532 -0.050582755 -0.023370894
-0.14727531 -0.050932541 -0.023591375
-0.1477824 -0.051161759 -0.023558248
-0.14781992 -0.05187146 -0.024537949
-0.14715631 -0.05329499 -0.027024852
-0.14754422 -0.053642042 -0.027242942
-0.14851679 -0.053394169 -0.026204675
-0.14902194 -0.053622518 -0.026171675
-0.14894044 -0.054444764 -0.027394991
-0.14921027 -0.05490955 -0.027863387
-0.14971423 -0.055137351 -0.027830463
-0.14974888 -0.05583721 -0.02879825
-0.1497834 -0.056535151 -0.029763382
-0.14970101 -0.057348199 -0.030974278
-0.15020272 -0.057574984 -0.030941501
-0.15058734 -0.057918552 -0.031156983
-0.15097168 -0.058261883 -0.03137232
-0.15123858 -0.058721367 -0.031835277
-0.1515051 -0.059180219 -0.032297604
-0.15165412 -0.059754279 -0.033006247
-0.15180284 -0.060327169 -0.033713445
-0.15218535 -0.060668394 -0.033927102
-0.15268482 -0.060894176 -0.033894472
-0.15353703 -0.060774095 -0.033122372
-0.15391921 -0.061115399 -0.033336375
-0.15453704 -0.061226122 -0.033057045
-0.15515527 -0.061336923 -0.032777522
-0.15565543 -0.061563015 -0.032744847
-0.1561556 -0.061789107 -0.032712169
-0.15715592 -0.06224129 -0.03264682
-0.15765609 -0.062467385 -0.032614145
-0.15779868 -0.0630375 -0.033321742
-0.051917784 -0.020201443 -0.046346452
-0.052165899 -0.020808548 -0.047032997
-0.052825432 -0.020776825 -0.046521563
-0.053155094 -0.0212557 -0.046968371
-0.053401712 -0.021861127 -0.047653601
-0.052824836 -0.023729309 -0.05071409
-0.053316776 -0.023951685 -0.050681952
-0.053808719 -0.024174061 -0.050649814
-0.054053355 -0.024773307 -0.051327664
-0.053394958 -0.026743183 -0.054590199
-0.053067718 -0.028201977 -0.056892887
-0.053473745 -0.028545601 -0.057093658
-0.05371644 -0.029134924 -0.05775879
-0.053795811 -0.029968044 -0.058885574
-0.053631391 -0.031163823 -0.060699679
-0.053791575 -0.031868771 -0.06158733
-0.053789474 -0.032813497 -0.062930197
-0.053868126 -0.033634268 -0.064039946
-0.054188762 -0.034092568 -0.064463936
-0.054428123 -0.03467004 -0.065114595
-0.054263551 -0.035842538 -0.066895753
-0.05418016 -0.036890518 -0.068442702
-0.054337803 -0.037579942 -0.069310106
-0.054655623 -0.038032081 -0.069727331
-0.055133931 -0.038248293 -0.069696091
-0.055612236 -0.038464505 -0.069664843
-0.05592902 -0.038915776 -0.070081569
-0.056245387 -0.039366458 -0.070497751
-0.05639983 -0.040050413 -0.071359657
-0.056231689 -0.041197915 -0.073107839
-0.056626946 -0.041529074 -0.073298536
-0.057021942 -0.041860018 -0.073489107
-0.057255294 -0.042422093 -0.074122146
-0.057488196 -0.04298307 -0.074753962
-0.057478968 -0.043887649 -0.076044858
-0.057791483 -0.044331051 -0.076453432
-0.058023032 -0.044888191 -0.077080749
-0.05841529 -0.045216136 -0.077268995
-0.058888048 -0.045429841 -0.077238113
-0.0592799 -0.045757502 -0.077426247
-0.059347995 -0.046539493 -0.078488402
-0.059738945 -0.046866167 -0.078675777
-0.060048696 -0.0473058 -0.079080947
-0.060196225 -0.047970563 -0.079920493
-0.06058602 -0.048296042 -0.080106981
-0.060813554 -0.048846159 -0.080727167
-0.060959719 -0.049507245 -0.081562452
-0.061024699 -0.050278243 -0.082611203
-0.061493527 -0.050490174 -0.082580581
-0.061638407 -0.05114726 -0.083411105
-0.062106635 -0.051358916 -0.083380505
-0.062493708 -0.051681548 -0.083564878
-0.062556036 -0.05244663 -0.084607109
-0.062861137 -0.052878648 -0.085004769
-0.063165843 -0.053310119 -0.085401915
-0.063632578 -0.0535211 -0.08537142
-0.064017937 -0.053842023 -0.08555457
-0.064158924 -0.054491717 -0.08637736
-0.064462125 -0.054921202 -0.086772747
-0.064846359 -0.055240966 -0.086955048
-0.065230355 -0.055560526 -0.087137237
-0.065614104 -0.055879883 -0.087319307
-0.065671109 -0.056633707 -0.08834932
-0.066053994 -0.056952119 -0.088530652
-0.066354953 -0.057378553 -0.08892332
-0.066737249 -0.057696424 -0.089104302
-0.067037486 -0.058121983 -0.089496225
-0.067337342 -0.058547005 -0.089887649
-0.067554966 -0.059078906 -0.090488978
-0.067690365 -0.05971688 -0.09129905
-0.067988969 -0.06013969 -0.091688231
-0.068450995 -0.060348544 -0.091658048
-0.068666957 -0.060877237 -0.092256002
-0.068964459 -0.061298657 -0.092643969
-0.069425769 -0.061507184 -0.092613831
-0.070299134 -0.06118397 -0.091537304
-0.070183635 -0.062136337 -0.092971213
-0.069740623 -0.063505799 -0.095228925
-0.069545336 -0.064552359 -0.096852995
-0.069840156 -0.064968452 -0.097235307
-0.070216365 -0.065279789 -0.097411327
-0.070674211 -0.065486759 -0.097381406
-0.071050033 -0.065797828 -0.097557329
-0.071589909 -0.065900691 -0.097321585
-0.071965449 -0.066211633 -0.09749753
-0.07242316 -0.066418536 -0.097467631
-0.072880857 -0.066625431 -0.097437724
-0.073669851 -0.066416793 -0.096583545
-0.074128129 -0.066623949 -0.096553601
-0.074586414 -0.066831104 -0.096523665
-0.075044692 -0.067038268 -0.096493728
-0.075086139 -0.067763403 -0.097494006
-0.075877629 -0.067556247 -0.096640162
-0.12579925 -0.030238835 -0.008352356
-0.12764829 -0.031437006 -0.008746027
-0.12782785 -0.03206072 -0.0095046367
-0.12823272 -0.032424323 -0.0097346045
-0.1288635 -0.032528866 -0.009436979
-0.12938131 -0.032762945 -0.0094031505
-0.1296722 -0.033255488 -0.0098968009
-0.12996268 -0.033747345 -0.010389755
-0.13013934 -0.034367081 -0.011144757
-0.13065588 -0.034600578 -0.011111013
-0.13117242 -0.034834076 -0.011077267
-0.13112047 -0.035707846 -0.012354641
-0.13129543 -0.036323775 -0.013105451
-0.13181052 -0.036556616 -0.013071802
-0.13278146 -0.036279481 -0.011991692
-0.13329729 -0.036512651 -0.011957995
-0.13381311 -0.036745816 -0.011924297
-0.1342143 -0.037106369 -0.012152524
-0.13472994 -0.037339456 -0.012118839
-0.13536057 -0.037445325 -0.011823202
-0.13587637 -0.037678495 -0.011789504
-0.13604638 -0.038292561 -0.012541175
-0.13644637 -0.038652189 -0.012768946
-0.13638532 -0.039516818 -0.014039772
-0.13678433 -0.039875261 -0.014266538
-0.13718307 -0.040233456 -0.014493147
-0.13758154 -0.040591396 -0.014719596
-0.13740361 -0.041575279 -0.016242398
-0.13780102 -0.041931879 -0.016467681
-0.13831341 -0.042163499 -0.016434208
-0.13871038 -0.042519767 -0.016659345
-0.13910705 -0.042875785 -0.016884329
-0.13950346 -0.043231554 -0.017109152
-0.14001532 -0.043462936 -0.017075714
-0.14064318 -0.043570165 -0.016783975
-0.14127146 -0.043677468 -0.016492033
-0.14166723 -0.04403308 -0.016717073
-0.14182994 -0.044636004 -0.017458085
-0.14210859 -0.045114268 -0.017940098
-0.14250326 -0.04546864 -0.018164163
-0.14266475 -0.046068806 -0.018902116
-0.14294225 -0.046545073 -0.019382121
-0.1433358 -0.046898209 -0.019605218
-0.14384569 -0.047128703 -0.019571906
-0.14412208 -0.047603741 -0.020050943
-0.14463162 -0.047834076 -0.020017656
-0.14455704 -0.048673488 -0.021262249
-0.14494893 -0.049024902 -0.021484075
-0.14545743 -0.049254756 -0.021450855
-0.14608303 -0.049363289 -0.021162558
-0.14659169 -0.049593225 -0.021129327
-0.14639677 -0.050548881 -0.022624062
-0.14667015 -0.051019415 -0.023098836
-0.14706025 -0.051369052 -0.023319412
-0.14721577 -0.051958542 -0.024046415
-0.14760514 -0.052307371 -0.02426636
-0.14717546 -0.053491432 -0.026251404
-0.14768045 -0.053719703 -0.026218414
-0.14830251 -0.053829025 -0.025933744
-0.14880766 -0.054057378 -0.025900742
-0.14872654 -0.054878872 -0.027124522
-0.14899652 -0.05534336 -0.027593106
-0.14950047 -0.055571165 -0.027560182
-0.14965253 -0.056152683 -0.028278328
-0.14968723 -0.056850433 -0.029244503
-0.14937153 -0.057896867 -0.030953525
-0.14987308 -0.058123577 -0.030920761
-0.15037461 -0.058350287 -0.030887997
-0.15075901 -0.058693472 -0.031103423
-0.15114319 -0.059036423 -0.031318702
-0.15129273 -0.059611216 -0.032029077
-0.15167618 -0.059953384 -0.032243744
-0.15194213 -0.060410928 -0.032705318
-0.15244231 -0.06063702 -0.032672647
-0.15259022 -0.061209004 -0.033380181
-0.15332496 -0.0612045 -0.032854211
-0.15370721 -0.061545663 -0.033068307
-0.15432495 -0.061656531 -0.032788884
-0.15494311 -0.061767478 -0.032509271
-0.15544328 -0.061993573 -0.032476593
-0.15594344 -0.062219664 -0.032443915
-0.1579441 -0.063124031 -0.032313216
-0.051458947 -0.020019736 -0.045392707
-0.051379535 -0.021138266 -0.047039423
-0.051873967 -0.021361766 -0.047007125
-0.052286137 -0.021712556 -0.047214068
-0.052780405 -0.021935983 -0.047181781
-0.053109653 -0.022413431 -0.047627546
-0.052944425 -0.023648787 -0.049501147
-0.053190257 -0.024249367 -0.050181061
-0.053600054 -0.024597542 -0.050385971
-0.053844903 -0.025196364 -0.051064085
-0.053350944 -0.026915869 -0.053858895
-0.053023633 -0.028375061 -0.05616555
-0.053348452 -0.028842039 -0.056599561
-0.053591356 -0.029431263 -0.057265405
-0.053427149 -0.03063084 -0.059087411
-0.05326381 -0.031824078 -0.060899787
-0.053505272 -0.032406654 -0.0615572
-0.05358452 -0.033229448 -0.062671043
-0.053744245 -0.033929355 -0.063553177
-0.053984281 -0.034507558 -0.064205378
-0.053659823 -0.035919886 -0.066443376
-0.053979341 -0.036374893 -0.066864118
-0.054217968 -0.036947861 -0.067509875
-0.054295354 -0.037755981 -0.068604179
-0.054452743 -0.038443826 -0.0694708
-0.054850638 -0.038777612 -0.069663681
-0.055409357 -0.038876247 -0.069408312
-0.055726267 -0.039327253 -0.069825202
-0.055962104 -0.039894722 -0.070465118
-0.056036305 -0.040694378 -0.071549647
-0.056271225 -0.041259039 -0.072186217
-0.056425184 -0.041938551 -0.073043421
-0.056820244 -0.04226936 -0.073234074
-0.057053793 -0.042831033 -0.073867366
-0.057286888 -0.043391615 -0.074499428
-0.057278052 -0.044295404 -0.075790815
-0.057590693 -0.044738542 -0.076199554
-0.057742007 -0.045409396 -0.077046327
-0.058214765 -0.045623101 -0.077015445
-0.058606829 -0.045950703 -0.077203654
-0.058998644 -0.046278093 -0.077391736
-0.059147857 -0.046945676 -0.078235343
-0.059377361 -0.047498506 -0.078858927
-0.059687145 -0.047937449 -0.079263724
-0.059996534 -0.04837583 -0.079668
-0.060386393 -0.048701178 -0.07985457
-0.060695034 -0.04913865 -0.080258079
-0.060841404 -0.049799576 -0.081094228
-0.060987398 -0.050458807 -0.081928246
-0.061213814 -0.051005088 -0.082544699
-0.061520644 -0.051439274 -0.082944818
-0.061908033 -0.051761981 -0.083129384
-0.062295165 -0.052084487 -0.083313838
-0.062357809 -0.052848928 -0.084356472
-0.062663034 -0.053280689 -0.084754281
-0.062967867 -0.053711902 -0.08515159
-0.063434608 -0.053922884 -0.085121095
-0.063820027 -0.054243676 -0.085304327
-0.06396126 -0.054892864 -0.086127423
-0.064345904 -0.055212837 -0.086310051
-0.064648889 -0.055641733 -0.086705357
-0.065032944 -0.055961162 -0.086887628
-0.065498352 -0.056171544 -0.086857222
-0.065474086 -0.057033584 -0.08810018
-0.065857023 -0.057351869 -0.088281602
-0.065995008 -0.057994042 -0.08909703
-0.066377185 -0.058311518 -0.089277849
-0.066759109 -0.058628794 -0.089458548
-0.066895701 -0.059268143 -0.090270951
-0.067276865 -0.059584614 -0.090451047
-0.067494273 -0.060114864 -0.091051094
-0.067792982 -0.060537428 -0.091440432
-0.068091333 -0.060959455 -0.091829278
-0.068553068 -0.061168179 -0.09179911
-0.069014817 -0.061376903 -0.091768943
-0.069066048 -0.062116403 -0.092784189
-0.069444977 -0.062430687 -0.092962772
-0.069086321 -0.063693613 -0.095012546
-0.068892673 -0.064739697 -0.096637145
-0.069187894 -0.065155677 -0.097019583
-0.069645897 -0.065362707 -0.096989669
-0.070022158 -0.065673918 -0.097165763
-0.070480004 -0.065880887 -0.097135849
-0.070773974 -0.066295758 -0.097517624
-0.071313597 -0.06639874 -0.097281948
-0.071853556 -0.066501789 -0.097046122
-0.072229013 -0.066812545 -0.097222142
-0.072686717 -0.067019448 -0.097192235
-0.073558353 -0.066707365 -0.096131288
-0.07401678 -0.066914596 -0.096101344
-0.074392021 -0.06722562 -0.096277878
-0.074850306 -0.067432769 -0.096247941
-0.075308584 -0.067639932 -0.096218005
-0.12557922 -0.03068538 -0.0080741402
-0.12609796 -0.03091987 -0.0080402521
-0.12772098 -0.03237693 -0.0089628426
-0.12801315 -0.032869928 -0.0094569791
-0.12853077 -0.033103917 -0.0094231619
-0.12904842 -0.03333791 -0.0093893455
-0.12956606 -0.033571899 -0.0093555283
-0.12974334 -0.034192473 -0.010112423
-0.12992024 -0.034811743 -0.010867718
-0.13043678 -0.03504524 -0.010833973
-0.13095333 -0.035278738 -0.010800228
-0.13135609 -0.03564031 -0.011029173
-0.13107693 -0.036767185 -0.01282919
-0.13159202 -0.037000027 -0.01279554
-0.13244867 -0.036850985 -0.01197703
-0.13342154 -0.036573973 -0.010894238
-0.13393791 -0.036807384 -0.010860506
-0.13399558 -0.037550248 -0.011875972
-0.13451122 -0.037783332 -0.011842286
-0.13514178 -0.037889358 -0.011546553
-0.13565759 -0.038122527 -0.011512854
-0.13605814 -0.038482595 -0.011741227
-0.13634309 -0.038969047 -0.012231154
-0.13628219 -0.039833426 -0.013503369
-0.1365663 -0.04031774 -0.013990859
-0.13696514 -0.040675778 -0.014217564
-0.13736366 -0.041033566 -0.014444109
-0.13718618 -0.042016521 -0.015967488
-0.13758367 -0.042372968 -0.016192868
-0.13798089 -0.042729162 -0.01641809
-0.13849312 -0.0429607 -0.016384628
-0.13900532 -0.043192241 -0.016351165
-0.1394019 -0.043548021 -0.016576257
-0.14002976 -0.043655321 -0.01628424
-0.14054197 -0.043886859 -0.016250778
-0.14105418 -0.044118401 -0.016217316
-0.14133377 -0.044597693 -0.016700871
-0.14138065 -0.045323223 -0.017699348
-0.14177556 -0.045677524 -0.017923497
-0.14193781 -0.046277471 -0.0186617
-0.14209971 -0.046876162 -0.019398363
-0.14260961 -0.047106653 -0.019365052
-0.14311951 -0.047337152 -0.01933174
-0.14362942 -0.047567643 -0.019298429
-0.14413932 -0.047798138 -0.019265117
-0.1444155 -0.04827271 -0.01974437
-0.14445788 -0.04898987 -0.020734122
-0.14461665 -0.049583875 -0.021466332
-0.14489163 -0.050055727 -0.021942565
-0.14575022 -0.049922336 -0.021144921
-0.14625871 -0.05015219 -0.021111701
-0.14653265 -0.050623819 -0.021588344
-0.14645499 -0.051456083 -0.022826778
-0.1466112 -0.052045684 -0.023554545
-0.14700089 -0.052394599 -0.023774734
-0.1472733 -0.05286289 -0.024247732
-0.14742835 -0.053449817 -0.024972521
-0.14758307 -0.054035533 -0.025695812
-0.14820531 -0.054145001 -0.025410865
-0.1485934 -0.054492231 -0.025629811
-0.14862965 -0.055194668 -0.026602954
-0.14901692 -0.055540942 -0.026821112
-0.14940393 -0.055886976 -0.02703912
-0.14979066 -0.056232776 -0.027256979
-0.14959097 -0.057165928 -0.02872527
-0.14939208 -0.05809525 -0.03018753
-0.14966033 -0.058555312 -0.030651774
-0.15016186 -0.058782026 -0.030619008
-0.15066341 -0.059008736 -0.030586245
-0.15104774 -0.059351694 -0.030801775
-0.15131456 -0.05981043 -0.031265125
-0.15169828 -0.060152762 -0.031480201
-0.15196438 -0.060610481 -0.03194261
-0.1524649 -0.060836732 -0.031909913
-0.1529654 -0.061062977 -0.031877216
-0.15323047 -0.061519764 -0.03233904
-0.15373063 -0.061745852 -0.032306366
-0.051497776 -0.021053838 -0.045815375
-0.05174632 -0.02166008 -0.04650246
-0.052076489 -0.022138037 -0.046948981
-0.052488454 -0.022488449 -0.047155876
-0.052817792 -0.022965364 -0.047601506
-0.053064335 -0.023568049 -0.04828494
-0.05322808 -0.024295511 -0.049204767
-0.05339139 -0.025021022 -0.050122127
-0.053554259 -0.025744591 -0.051037028
-0.053143322 -0.027337231 -0.05359637
-0.053060964 -0.028424926 -0.055203687
-0.053141657 -0.029261719 -0.056338087
-0.05338477 -0.029850526 -0.057004187
-0.053058971 -0.031292759 -0.059288982
-0.052896708 -0.032483459 -0.06109963
-0.053299978 -0.032823287 -0.061297622
-0.053379565 -0.033645395 -0.062411897
-0.053701051 -0.034104444 -0.062837645
-0.053537957 -0.035281502 -0.064629465
-0.053456012 -0.03633352 -0.066185668
-0.05385606 -0.036669526 -0.066380501
-0.05417534 -0.037123892 -0.066801153
-0.054494202 -0.037577663 -0.067221254
-0.054571137 -0.038384758 -0.068316028
-0.054728169 -0.039071776 -0.069183029
-0.055206474 -0.039287992 -0.069151781
-0.05544297 -0.039855868 -0.06979277
-0.055679005 -0.040422641 -0.070432521
-0.055753641 -0.041221179 -0.071516737
-0.056230236 -0.04143662 -0.071485601
-0.056464888 -0.042000379 -0.07212203
-0.056618549 -0.042678699 -0.07297904
-0.056852292 -0.043239973 -0.073612578
-0.057085581 -0.04380016 -0.074244887
-0.056996815 -0.044817641 -0.075756751
-0.057389908 -0.045146029 -0.075945668
-0.057702273 -0.045588333 -0.076354042
-0.058014236 -0.046030067 -0.076761886
-0.058406368 -0.046357535 -0.076950178
-0.058717579 -0.046798348 -0.077357247
-0.058867101 -0.047465041 -0.078200623
-0.059096802 -0.048017196 -0.078824043
-0.059326056 -0.048568286 -0.079446256
-0.059716132 -0.048893575 -0.079632893
-0.060025204 -0.04933092 -0.080036551
-0.060414679 -0.04965565 -0.080222823
-0.060642157 -0.050203934 -0.080842301
-0.060788408 -0.050862648 -0.081676632
-0.061015017 -0.051408544 -0.082293332
-0.061321978 -0.05184247 -0.082693614
-0.061709423 -0.05216505 -0.082878254
-0.062096622 -0.052487426 -0.08306279
-0.062159583 -0.053251222 -0.084105819
-0.062384017 -0.053792752 -0.08471784
-0.062769897 -0.054113686 -0.084901258
-0.063236631 -0.054324668 -0.084870763
-0.063459754 -0.054864489 -0.085481286
-0.063682452 -0.055403274 -0.086090632
-0.063985869 -0.055832047 -0.086486086
-0.064451419 -0.056042492 -0.086455673
-0.064835533 -0.056361798 -0.086638018
-0.065300941 -0.056572177 -0.086607613
-0.065277047 -0.05743346 -0.08785104
-0.06557858 -0.057859723 -0.088244252
-0.065716878 -0.058501054 -0.089059472
-0.066099025 -0.05881827 -0.089240246
-0.066562518 -0.059027787 -0.089209959
-0.066699348 -0.05966663 -0.090022676
-0.066917367 -0.06019697 -0.090623304
-0.067216545 -0.060619611 -0.091013037
-0.067597009 -0.060935158 -0.091192625
-0.067813769 -0.0614633 -0.091791026
-0.068275362 -0.061671957 -0.091760866
-0.06832774 -0.062410764 -0.092775799
-0.068625003 -0.062830552 -0.093162835
-0.068187773 -0.064196341 -0.095417775
-0.068239994 -0.064927049 -0.096421294
-0.068373211 -0.065551348 -0.097215876
-0.068830907 -0.065758251 -0.097185977
-0.06945163 -0.065756969 -0.096744031
-0.069909625 -0.065963998 -0.096714109
-0.070367612 -0.066171028 -0.096684188
-0.07074365 -0.066481985 -0.096860379
-0.071283601 -0.066585086 -0.096624352
-0.071823888 -0.066688247 -0.096388169
-0.072282031 -0.066895351 -0.09635824
-0.073319688 -0.066374466 -0.094880745
-0.074612573 -0.065537155 -0.092771672
-0.075073153 -0.065745354 -0.092741586
-0.075701691 -0.065744057 -0.092294075
-0.12524709 -0.0312621 -0.0080607804
-0.12761405 -0.032693364 -0.0084206667
-0.12779358 -0.033315528 -0.0091793528
-0.12831122 -0.033549517 -0.0091455355
-0.12882885 -0.03378351 -0.0091117192
-0.12934649 -0.034017503 -0.009077902
-0.12952401 -0.034637608 -0.0098350905
-0.12992769 -0.034999792 -0.010064618
-0.13021769 -0.035489898 -0.010556933
-0.13073422 -0.035723396 -0.010523188
-0.13113707 -0.036084816 -0.010752231
-0.13085847 -0.037210599 -0.01255293
-0.13137355 -0.03744344 -0.012519279
-0.13234389 -0.037167549 -0.011438393
-0.13343148 -0.036763199 -0.01009144
-0.13394819 -0.036996778 -0.010057683
-0.13389134 -0.037867054 -0.011337298
-0.13417794 -0.03835411 -0.011827681
-0.13492297 -0.038333394 -0.011269903
-0.1354388 -0.038566563 -0.011236205
-0.1359546 -0.038799729 -0.011202507
-0.13612452 -0.039412618 -0.011954796
-0.13606402 -0.040276214 -0.013227495
-0.13623336 -0.040885828 -0.013975548
-0.13674718 -0.0411181 -0.013941979
-0.13703066 -0.041601006 -0.01442865
-0.13696878 -0.042457763 -0.015692579
-0.13725142 -0.042938553 -0.016176838
-0.13776362 -0.043170094 -0.016143374
-0.13827585 -0.043401632 -0.016109912
-0.13878806 -0.043633174 -0.016076449
-0.13930027 -0.043864716 -0.016042985
-0.1398125 -0.044096254 -0.016009523
-0.14032471 -0.044327792 -0.015976062
-0.14083692 -0.044559333 -0.0159426
-0.14111666 -0.045038324 -0.016426343
-0.14116384 -0.045763236 -0.017425206
-0.14144275 -0.046240382 -0.017906908
-0.14172129 -0.046716865 -0.01838794
-0.14188342 -0.047315102 -0.019124888
-0.14239332 -0.047545597 -0.019091576
-0.14290322 -0.047776088 -0.019058263
-0.14341313 -0.048006583 -0.019024953
-0.14392303 -0.048237074 -0.018991642
-0.14419936 -0.048711345 -0.019471085
-0.14424203 -0.049427893 -0.020461215
-0.14428459 -0.050142456 -0.021448601
-0.14467618 -0.050492994 -0.021670131
-0.14518414 -0.050722614 -0.021636948
-0.14580899 -0.050831538 -0.021349013
-0.14631712 -0.051061239 -0.021315817
-0.14659083 -0.051531907 -0.021791991
-0.14639626 -0.052481897 -0.023282768
-0.14678603 -0.052830663 -0.023503054
-0.14705859 -0.053298648 -0.023976238
-0.14756478 -0.053527474 -0.023943169
-0.14771955 -0.054113712 -0.024668273
-0.14810805 -0.054461196 -0.024887625
-0.14837912 -0.054927092 -0.025358878
-0.14841568 -0.055628926 -0.026332393
-0.14880303 -0.055975053 -0.026550643
-0.1491901 -0.056320939 -0.026768748
-0.14945967 -0.05678428 -0.027237412
-0.14937766 -0.057598848 -0.028455546
-0.1492959 -0.05841063 -0.029669508
-0.1495643 -0.058870636 -0.030134264
-0.150066 -0.059097424 -0.030101487
-0.15045066 -0.059440471 -0.030317256
-0.15095219 -0.059667177 -0.030284492
-0.15121919 -0.060125858 -0.030748354
-0.15172039 -0.060352415 -0.030715611
-0.15210408 -0.06069468 -0.030930949
-0.15272276 -0.060805522 -0.030650128
-0.15310611 -0.061147638 -0.030865489
-0.15337136 -0.061604831 -0.031328477
-0.15387204 -0.061831154 -0.031295765
-0.051782873 -0.021703836 -0.045517497
-0.052031126 -0.022309424 -0.046204884
-0.052278873 -0.022913784 -0.046890877
-0.052526128 -0.023516925 -0.047575485
-0.05277288 -0.02411885 -0.048258718
-0.053019136 -0.024719562 -0.048940565
-0.053018548 -0.025695134 -0.050332274
-0.052936118 -0.026791403 -0.051954217
-0.05285408 -0.02788255 -0.053568576
-0.052853826 -0.028845306 -0.054941773
-0.053016219 -0.029558495 -0.055843569
-0.05317818 -0.030269789 -0.056742974
-0.052853066 -0.031710636 -0.059028629
-0.052852817 -0.032658171 -0.060380116
-0.053175498 -0.033119082 -0.060808338
-0.053416889 -0.033699997 -0.061465405
-0.053576991 -0.034399979 -0.062349997
-0.05341417 -0.035576649 -0.064143687
-0.053654138 -0.036152281 -0.064794235
-0.053813141 -0.03684561 -0.06567011
-0.054293796 -0.03706288 -0.065638714
-0.054451756 -0.037754107 -0.066512339
-0.054528814 -0.038561441 -0.067608982
-0.054846924 -0.039013531 -0.068027869
-0.05516462 -0.039465033 -0.068446212
-0.055159856 -0.040384147 -0.069760367
-0.055235382 -0.041183267 -0.070846379
-0.055551484 -0.041631449 -0.071261123
-0.056028079 -0.04184689 -0.071229987
-0.056262933 -0.042410247 -0.071866669
-0.056497324 -0.042972513 -0.072502114
-0.056731261 -0.043533683 -0.073136322
-0.056884278 -0.044208705 -0.073990352
-0.05687622 -0.045110907 -0.075282723
-0.057189122 -0.04555352 -0.075691789
-0.057582028 -0.045881566 -0.075880669
-0.05789417 -0.046323255 -0.076288946
-0.058205906 -0.04676437 -0.076696709
-0.058356185 -0.04743154 -0.077541478
-0.058586527 -0.047984082 -0.078165933
-0.058735978 -0.048648186 -0.079006918
-0.059045877 -0.049085967 -0.079411231
-0.059355378 -0.04952319 -0.079815023
-0.059745066 -0.049847864 -0.080001369
-0.060053822 -0.050284177 -0.080404393
-0.060362183 -0.050719932 -0.080806904
-0.060589422 -0.051266488 -0.081425026
-0.060816221 -0.051811997 -0.082041971
-0.061123308 -0.052245662 -0.082442395
-0.06143 -0.052678775 -0.08284232
-0.061898079 -0.052890364 -0.082811743
-0.061799798 -0.053873654 -0.084283821
-0.06218598 -0.054194663 -0.084467441
-0.062491022 -0.054625161 -0.084864803
-0.062957615 -0.054836076 -0.084834322
-0.063261963 -0.055265889 -0.085231192
-0.063322842 -0.056022365 -0.086266808
-0.063788392 -0.05623281 -0.086236395
-0.064253941 -0.056443255 -0.086205982
-0.064638123 -0.056762435 -0.086388402
-0.065103531 -0.056972817 -0.086358003
-0.065080009 -0.057833336 -0.087601908
-0.065056577 -0.058690589 -0.088841096
-0.06552022 -0.05890017 -0.088810809
-0.065902419 -0.059217263 -0.088991657
-0.066365913 -0.059426777 -0.088961378
-0.066747725 -0.059743598 -0.089142121
-0.066884287 -0.060381342 -0.089954667
-0.067020498 -0.061017469 -0.090765163
-0.06748268 -0.06122639 -0.090734966
-0.067863062 -0.061541747 -0.090914637
-0.067916147 -0.062281456 -0.091931872
-0.06788753 -0.063124411 -0.093154341
-0.067777716 -0.064069234 -0.094579756
-0.067587331 -0.065114386 -0.096205443
-0.067802347 -0.065634333 -0.096794292
-0.068260193 -0.065841295 -0.096764371
-0.068718038 -0.066048265 -0.096734464
-0.069257364 -0.066151224 -0.0964984
-0.069715358 -0.066358253 -0.096468478
-0.070418924 -0.066253282 -0.095819242
-0.071700685 -0.065416902 -0.093716413
-0.12739426 -0.033139437 -0.0081427461
-0.1273488 -0.034018975 -0.0094293496
-0.12809166 -0.033995122 -0.0088679092
-0.1286093 -0.034229111 -0.0088340929
-0.12912694 -0.034463104 -0.0088002756
-0.12930468 -0.035082735 -0.0095577585
-0.12936896 -0.035829071 -0.010576489
-0.12988532 -0.03606249 -0.010542756
-0.13040167 -0.036295902 -0.010509023
-0.13114539 -0.036273696 -0.0099493321
-0.13109346 -0.037145246 -0.011229139
-0.13149561 -0.037505656 -0.011457611
-0.13212509 -0.037611585 -0.011161743
-0.13332681 -0.0370804 -0.0095509989
-0.13384372 -0.037314061 -0.0095172301
-0.13401622 -0.037929811 -0.010272888
-0.13407379 -0.038671087 -0.011289181
-0.13470417 -0.038777426 -0.010993253
-0.13522001 -0.039010596 -0.010959555
-0.13573582 -0.039243761 -0.010925857
-0.13590598 -0.039856181 -0.011678439
-0.135731 -0.04084472 -0.013212441
-0.13590062 -0.041453522 -0.013960248
-0.13641427 -0.041685712 -0.013926691
-0.13669789 -0.042168051 -0.014413202
-0.13663661 -0.043023519 -0.015676716
-0.13714901 -0.043255139 -0.015643243
-0.1376614 -0.043486759 -0.015609768
-0.1381738 -0.043718383 -0.015576294
-0.1386862 -0.043950006 -0.015542819
-0.13908301 -0.044305645 -0.015768269
-0.13959523 -0.044537187 -0.015734807
