# .PCD v0.7 - Point Cloud Data file format
VERSION 0.7
FIELDS x y z
SIZE 4 4 4
TYPE F F F
COUNT 1 1 1
WIDTH 1237
HEIGHT 1
VIEWPOINT 0 0 0 1 0 0 0
POINTS 1237
DATA ascii
-0.055637032 -0.043962166 -0.030380143
-0.0552135 -0.04550596 -0.033046462
-0.05537501 -0.046206776 -0.033990569
-0.055869609 -0.046430353 -0.03395826
-0.055779967 -0.047484424 -0.035628583
-0.056023356 -0.048061982 -0.036323629
-0.056432892 -0.048402745 -0.036533535
-0.057092849 -0.048389692 -0.036016934
-0.057669796 -0.048494648 -0.035742261
-0.05824713 -0.048599675 -0.035467405
-0.059331786 -0.047995385 -0.033732079
-0.059826385 -0.048218958 -0.033699766
-0.060320985 -0.048442535 -0.033667453
-0.06090077 -0.048547827 -0.033391155
-0.061651949 -0.048416372 -0.032625847
-0.062576562 -0.048047185 -0.031368487
-0.063504316 -0.047676746 -0.03010687
-0.065482736 -0.045865566 -0.025863577
-0.066952221 -0.044762444 -0.023080049
-0.06754262 -0.044867989 -0.022796156
-0.068044484 -0.045094851 -0.02276337
-0.068190612 -0.045805573 -0.023734111
-0.068247624 -0.046634696 -0.024951989
-0.069729045 -0.045533337 -0.022162169
-0.070231259 -0.04576036 -0.022129359
-0.070374496 -0.046470653 -0.023101633
-0.070517331 -0.047179006 -0.02407125
-0.070928492 -0.047525536 -0.02428871
-0.071429171 -0.047751859 -0.024256
-0.071929842 -0.047978181 -0.024223294
-0.073881194 -0.046276294 -0.02016657
-0.074475989 -0.046382722 -0.019880703
-0.074705146 -0.046973296 -0.020606257
-0.074842498 -0.047683146 -0.021582283
-0.075162053 -0.048150815 -0.022052895
-0.075481176 -0.04861784 -0.022522861
-0.075982876 -0.048844628 -0.022490086
-0.075661421 -0.050146349 -0.024711471
-0.075160459 -0.051676467 -0.027415283
-0.075205334 -0.05249086 -0.028619895
-0.075612105 -0.052833237 -0.028834337
-0.076200224 -0.052940588 -0.0285549
-0.076971069 -0.052812897 -0.027780509
-0.077469021 -0.05303799 -0.027747976
-0.078241944 -0.052910268 -0.026971973
-0.078281604 -0.05372284 -0.028177744
-0.078687467 -0.054064915 -0.028392408
-0.078086808 -0.055688314 -0.031313106
-0.078582235 -0.055912267 -0.031280741
-0.078986228 -0.056252103 -0.031493414
-0.079664782 -0.056244288 -0.030970791
-0.079885051 -0.056815509 -0.031673603
-0.080380142 -0.057039309 -0.03164126
-0.080875248 -0.057263114 -0.031608913
-0.081739575 -0.057024747 -0.030595854
-0.082420677 -0.057017449 -0.030072091
-0.08338204 -0.056662209 -0.028808277
-0.084159411 -0.056538433 -0.028034933
-0.084656857 -0.056763299 -0.028002433
-0.084966622 -0.057220209 -0.02846407
-0.08546374 -0.057444923 -0.028431593
-0.086526692 -0.056973457 -0.026914576
-0.087024815 -0.057198629 -0.026882034
-0.087522939 -0.057423797 -0.026849492
-0.088116102 -0.057532895 -0.026568905
-0.090146601 -0.055891369 -0.022544403
-0.090647615 -0.056117844 -0.022511672
-0.09028165 -0.057395499 -0.024729965
-0.089631349 -0.059011947 -0.027677456
-0.089746937 -0.059697554 -0.028632991
-0.089671858 -0.060610428 -0.030077646
-0.090262942 -0.060720082 -0.029799478
-0.10127258 -0.065539196 -0.028840516
-0.10147118 -0.066101581 -0.029546199
-0.10147142 -0.066887245 -0.030740714
-0.10186714 -0.067222916 -0.030953282
-0.10246094 -0.06733454 -0.030676069
-0.10485658 -0.065418169 -0.025958773
-0.10606224 -0.064848386 -0.024184851
-0.10768221 -0.063818105 -0.021398818
-0.11367108 -0.059506264 -0.010334277
-0.11333349 -0.060675327 -0.012366089
-0.11394625 -0.06078751 -0.012075447
-0.11434765 -0.061133765 -0.012299834
-0.11485473 -0.061362986 -0.012266708
-0.11536181 -0.061592203 -0.01223358
-0.11576259 -0.061938062 -0.012457836
-0.11616307 -0.06228368 -0.012681938
-0.11624421 -0.062977545 -0.013675972
-0.11653753 -0.06343805 -0.014155443
-0.1169368 -0.063782319 -0.014378418
-0.11744231 -0.064010829 -0.014345394
-0.11869673 -0.063428983 -0.012516417
-0.12071469 -0.062026639 -0.0088650594
-0.0071992045 -0.0094171083 -0.013203174
-0.0068797944 -0.011270957 -0.016267207
-0.0071817227 -0.0119044 -0.017004317
-0.0073451377 -0.012804244 -0.01825154
-0.0076457476 -0.013434344 -0.018984554
-0.0083603505 -0.013263157 -0.018185217
-0.009971953 -0.014979064 -0.019583678
-0.011602066 -0.013073714 -0.015453272
-0.012893104 -0.011823685 -0.012576451
-0.013762609 -0.01137861 -0.011243246
-0.014418807 -0.011339164 -0.010688567
-0.015003626 -0.011435314 -0.010394188
-0.015516378 -0.011667097 -0.01036069
-0.01573902 -0.012439879 -0.011369764
-0.01661472 -0.011995259 -0.010032584
-0.016050609 -0.017726839 -0.019186564
-0.016054844 -0.018875564 -0.020932799
-0.016416753 -0.019365804 -0.021406613
-0.016634788 -0.020116307 -0.022385228
-0.017139079 -0.020344265 -0.022352284
-0.017931707 -0.020050619 -0.021307642
-0.018944422 -0.019363172 -0.01949738
-0.019596493 -0.019329708 -0.018954916
-0.019737886 -0.020213338 -0.020194046
-0.020243568 -0.020441925 -0.02016101
-0.020822529 -0.020539919 -0.019873857
-0.021549053 -0.020376505 -0.019077376
-0.02190792 -0.020866726 -0.019553449
-0.022192542 -0.021486536 -0.020282842
-0.022181982 -0.022623843 -0.022022834
-0.022318307 -0.023497876 -0.02325117
-0.022527579 -0.024240397 -0.02422424
-0.022883194 -0.024724443 -0.024693364
-0.023385586 -0.024951544 -0.024660543
-0.023814147 -0.025306752 -0.024878472
-0.024316367 -0.025533771 -0.024845663
-0.025936527 -0.023832245 -0.021033164
-0.027649401 -0.021982512 -0.016925082
-0.028711511 -0.026712021 -0.023327218
-0.029138835 -0.027067112 -0.023545902
-0.028734649 -0.028818879 -0.026518375
-0.028708586 -0.029928239 -0.028227493
-0.029057814 -0.030405449 -0.028691018
-0.029557126 -0.030631155 -0.028658397
-0.030358853 -0.03035444 -0.027632684
-0.030858845 -0.030580455 -0.027600018
-0.031055061 -0.031308278 -0.02856054
-0.031023564 -0.032408331 -0.030259579
-0.031143237 -0.033255108 -0.031458959
-0.032095823 -0.032734171 -0.029947598
-0.032594118 -0.032959417 -0.029915044
-0.032863513 -0.033557449 -0.030622747
-0.033361297 -0.033782467 -0.030590227
-0.033859085 -0.034007486 -0.030557707
-0.033973873 -0.034850977 -0.031755771
-0.034241136 -0.03544547 -0.032459687
-0.034737576 -0.035669874 -0.032427259
-0.035003789 -0.036262937 -0.033129781
-0.036270637 -0.035256129 -0.030641604
-0.039117828 -0.031739797 -0.023140416
-0.03962056 -0.031967051 -0.023107573
-0.039410274 -0.033323344 -0.025331613
-0.04062603 -0.032421559 -0.023041885
-0.046295043 -0.026587684 -0.0098843072
-0.046640411 -0.027078701 -0.010371771
-0.046902165 -0.027698496 -0.011118378
-0.046005514 -0.03011518 -0.015474664
-0.046019442 -0.031109564 -0.016978538
-0.046197381 -0.031846449 -0.017966643
-0.046456881 -0.032454908 -0.018697675
-0.046797972 -0.032935962 -0.019173194
-0.047138594 -0.033416357 -0.019648055
-0.047643408 -0.033644546 -0.019615076
-0.049503259 -0.035786469 -0.021475205
-0.048522383 -0.038244806 -0.02595841
-0.048776597 -0.038839877 -0.026673052
-0.049030285 -0.039433736 -0.027386237
-0.049529597 -0.039659444 -0.027353615
-0.049700156 -0.040373929 -0.028313166
-0.050116569 -0.040721238 -0.028528223
-0.050368205 -0.041311566 -0.02923758
-0.050866161 -0.041536659 -0.029205048
-0.051116779 -0.042125557 -0.029912995
-0.052110422 -0.041622531 -0.028397966
-0.05369316 -0.040261533 -0.025132276
-0.054361843 -0.040242709 -0.024599593
-0.055284746 -0.039855246 -0.023313873
-0.054591335 -0.045588978 -0.0325686
-0.054920141 -0.046051588 -0.03302528
-0.05516522 -0.046632543 -0.033725303
-0.055576425 -0.046974931 -0.033936795
-0.055570669 -0.047909193 -0.035363939
-0.055647995 -0.048721973 -0.03654347
-0.056057382 -0.049062282 -0.036753163
-0.056800142 -0.048931967 -0.035994843
-0.057376795 -0.049037073 -0.035720255
-0.058037832 -0.049024437 -0.03520276
-0.058952931 -0.048657641 -0.033954408
-0.059616592 -0.048644725 -0.033434499
-0.060196143 -0.048750084 -0.03315812
-0.060776085 -0.048855513 -0.032881554
-0.061356414 -0.048961017 -0.032604806
-0.062194362 -0.048711427 -0.031593092
-0.063552998 -0.047747184 -0.029100548
-0.066679664 -0.044360459 -0.02158609
-0.067626558 -0.043978859 -0.020291228
-0.068129979 -0.044206429 -0.020258339
-0.067831613 -0.045526884 -0.022494199
-0.067535065 -0.046839233 -0.024716329
-0.067946821 -0.047185525 -0.024933346
-0.068269663 -0.047651459 -0.02539959
-0.068769485 -0.047877397 -0.025366936
-0.069269307 -0.048103333 -0.025334284
-0.06941317 -0.048807051 -0.026297562
-0.069823302 -0.049151849 -0.026513522
-0.070500694 -0.049139146 -0.025983594
-0.071717478 -0.048409179 -0.023954766
-0.074123904 -0.046103485 -0.018629521
-0.074719802 -0.046210036 -0.018342631
-0.074857511 -0.046922885 -0.01932445
-0.07499484 -0.047633778 -0.020303573
-0.07531473 -0.048102118 -0.020775707
-0.075268373 -0.04904972 -0.022253782
-0.075770073 -0.049276512 -0.022221006
-0.075905591 -0.04998127 -0.02319216
-0.075858183 -0.050921801 -0.024660254
-0.075447403 -0.052330665 -0.027115481
-0.075582437 -0.053026501 -0.0280734
-0.076261893 -0.053016461 -0.02754597
-0.077033587 -0.052888714 -0.026769761
-0.077806853 -0.052760705 -0.025991967
-0.078305826 -0.052986261 -0.025959369
-0.078528978 -0.053564686 -0.026672067
-0.078476474 -0.054493137 -0.028125612
-0.077876665 -0.0561148 -0.031047391
-0.078098662 -0.056685954 -0.031749889
-0.078502409 -0.057025187 -0.03196219
-0.07899718 -0.057248838 -0.031929865
-0.079675041 -0.057241708 -0.031408064
-0.08017014 -0.057465512 -0.031375721
-0.08103352 -0.057227418 -0.030362347
-0.081714138 -0.057220258 -0.029838426
-0.08221025 -0.057444513 -0.029806016
-0.083450958 -0.056741785 -0.027800633
-0.083948411 -0.056966651 -0.027768135
-0.084445857 -0.057191517 -0.027735638
-0.084849499 -0.057532303 -0.02795038
-0.08572305 -0.057293247 -0.026927881
-0.086788356 -0.056820672 -0.025405215
-0.087287322 -0.057046223 -0.025372615
-0.087786295 -0.057271779 -0.025340019
-0.088953674 -0.056681387 -0.02356099
-0.089934081 -0.05632266 -0.022275692
-0.090435095 -0.056549136 -0.02224296
-0.089973852 -0.057941724 -0.024711432
-0.08922977 -0.059670556 -0.027905168
-0.08963152 -0.060010269 -0.028119709
-0.10175703 -0.065175124 -0.026845828
-0.10126095 -0.066528209 -0.029280394
-0.10126156 -0.06731315 -0.030475356
-0.10175632 -0.067536801 -0.030443033
-0.10235028 -0.067648575 -0.030165551
-0.10364258 -0.066975139 -0.028165892
-0.10514332 -0.06607192 -0.025659174
-0.10645114 -0.065390058 -0.023634985
-0.11261133 -0.060882621 -0.012127252
-0.11290777 -0.061345529 -0.012608788
-0.1134145 -0.061574589 -0.012575683
-0.11392123 -0.06180365 -0.012542579
-0.11453376 -0.061916143 -0.012252199
-0.11504067 -0.062145282 -0.012219083
-0.11554758 -0.062374424 -0.012185968
-0.11594814 -0.062719889 -0.012410163
-0.11592343 -0.063529 -0.013661006
-0.11621688 -0.063988969 -0.014140324
-0.11672238 -0.064217478 -0.014107299
-0.11722788 -0.064445987 -0.014074275
-0.11848179 -0.063865192 -0.012244643
-0.11941851 -0.063630357 -0.011180951
-0.0071209874 -0.0095854783 -0.012410105
-0.0071470086 -0.01076522 -0.014189851
-0.007172903 -0.011939229 -0.015960952
-0.0067863208 -0.013908129 -0.019255783
-0.0072243167 -0.014270218 -0.019477459
-0.0079377415 -0.014100075 -0.018679464
-0.011582696 -0.011936624 -0.012628498
-0.01209384 -0.01216768 -0.012595105
-0.012604985 -0.012398736 -0.012561712
-0.013545345 -0.011819543 -0.010968528
-0.014201391 -0.011780406 -0.010413657
-0.014713963 -0.012012109 -0.010380172
-0.014865551 -0.012918985 -0.011648958
-0.015305006 -0.013284954 -0.011875452
-0.01639715 -0.012436808 -0.0097574824
-0.015329191 -0.017933918 -0.018947976
-0.015335165 -0.019082142 -0.020694787
-0.015697571 -0.019572241 -0.021168763
-0.015988011 -0.020192109 -0.021894984
-0.016277853 -0.020810695 -0.022619709
-0.016781796 -0.021038497 -0.022586787
-0.017645424 -0.020615714 -0.021290081
-0.018875074 -0.019536786 -0.018716328
-0.019454563 -0.019634638 -0.018428179
-0.019888183 -0.019994749 -0.018650141
-0.020248322 -0.020485401 -0.019126674
-0.020754525 -0.020714223 -0.019093605
-0.021334264 -0.020812415 -0.018805789
-0.021619674 -0.021432709 -0.019536458
-0.021610489 -0.022570927 -0.021279445
-0.021528153 -0.023832554 -0.023265874
-0.021811601 -0.024445914 -0.023987452
-0.022240998 -0.024801539 -0.024205759
-0.022523325 -0.025413062 -0.024925383
-0.023172487 -0.025384018 -0.024391096
-0.027123109 -0.01962864 -0.012630871
-0.0283996 -0.018534208 -0.0099981138
-0.028472511 -0.028263394 -0.024782414
-0.028371891 -0.029502593 -0.026748434
-0.028571697 -0.030232625 -0.027711097
-0.028921137 -0.03070979 -0.02817513
-0.02972227 -0.030433089 -0.027148407
-0.030222433 -0.03065918 -0.027115732
-0.030646766 -0.031010868 -0.027331855
-0.030314149 -0.032611962 -0.030024961
-0.030435026 -0.033458393 -0.031224739
-0.030932305 -0.033683181 -0.031192251
-0.031656794 -0.033535924 -0.030420808
-0.032154582 -0.033760939 -0.030388288
-0.032652367 -0.033985958 -0.030355768
-0.032997616 -0.034458634 -0.030816121
-0.033189937 -0.035177507 -0.031767406
-0.033686712 -0.035402067 -0.031734951
-0.034030564 -0.035872821 -0.032193433
-0.034297496 -0.036465671 -0.032896191
-0.034793429 -0.036689855 -0.032863792
-0.035289362 -0.036914032 -0.032831393
-0.038904581 -0.032172564 -0.022870783
-0.039645232 -0.032022137 -0.022082305
-0.039910052 -0.032627076 -0.022805098
-0.04598096 -0.026145933 -0.0083375284
-0.045995075 -0.027157988 -0.0098704975
-0.046506576 -0.027389204 -0.0098370817
-0.046851676 -0.027879491 -0.010324408
-0.046698105 -0.029142583 -0.012366841
-0.046215534 -0.030909376 -0.015425864
-0.045900755 -0.032408647 -0.017950198
-0.046242464 -0.032890063 -0.018426558
-0.04666581 -0.03324474 -0.018647984
-0.047088865 -0.033599172 -0.018869258
-0.047264773 -0.034330349 -0.019851703
-0.047769237 -0.034558386 -0.019818747
-0.05003655 -0.035094716 -0.01892543
-0.049214255 -0.037317149 -0.022935836
-0.04872847 -0.039024584 -0.025906749
-0.048818491 -0.03986356 -0.027118439
-0.048826464 -0.040821519 -0.028573541
-0.049242888 -0.04116844 -0.028788364
-0.049659036 -0.041515131 -0.029003041
-0.049992863 -0.041982856 -0.029464466
-0.05049048 -0.0422078 -0.029431958
-0.050741311 -0.042795613 -0.030139193
-0.05189899 -0.042051628 -0.028130624
-0.053480789 -0.040692531 -0.024863748
-0.05414933 -0.040674005 -0.02433088
-0.055215314 -0.044818029 -0.029846909
-0.05479335 -0.046358641 -0.032515213
-0.05495543 -0.047058307 -0.033460032
-0.055366702 -0.047400557 -0.033671614
-0.055444527 -0.048215836 -0.034856372
-0.055273142 -0.049381081 -0.036763012
-0.055682372 -0.049720939 -0.036972493
-0.056340944 -0.049708795 -0.036456879
-0.057167638 -0.049461547 -0.035455793
-0.057828538 -0.049449198 -0.034938119
-0.058743283 -0.049083121 -0.033689316
-0.059406802 -0.049070492 -0.033169232
-0.059901401 -0.049294066 -0.033136915
-0.060481045 -0.049399648 -0.032860439
-0.061146412 -0.049387213 -0.032339267
-0.061727062 -0.049492937 -0.03206224
-0.065963939 -0.044565901 -0.02134938
-0.067176193 -0.043818604 -0.019294569
-0.067591034 -0.044168431 -0.019515013
-0.068005599 -0.044518013 -0.019735307
-0.067885228 -0.04559581 -0.021470057
-0.067322843 -0.04726994 -0.024447985
-0.06711679 -0.048453614 -0.026408896
-0.06761577 -0.048679166 -0.0263763
-0.068557478 -0.048307661 -0.025098866
-0.069057293 -0.048533596 -0.025066214
-0.069112688 -0.049355827 -0.026278507
-0.069522783 -0.049700316 -0.026494402
-0.070021585 -0.049925797 -0.026461815
-0.073405705 -0.046309639 -0.018391998
-0.074184284 -0.046173342 -0.017596452
-0.074780814 -0.046280026 -0.017308909
-0.074826933 -0.047114607 -0.018547038
-0.075147599 -0.047584269 -0.019021351
-0.075284533 -0.048294254 -0.02000089
-0.075604223 -0.048762146 -0.020473231
-0.076015182 -0.049109437 -0.020692743
-0.076150604 -0.049815632 -0.021667648
-0.075828515 -0.051114816 -0.023892317
-0.075872429 -0.051933486 -0.025107849
-0.075916193 -0.052749377 -0.026319249
-0.076323695 -0.053092483 -0.026534982
-0.076822162 -0.053317808 -0.026502419
-0.077503614 -0.05330795 -0.025973022
-0.078002416 -0.053533424 -0.025940435
-0.078501217 -0.053758904 -0.025907848
-0.078357071 -0.054804515 -0.027611461
-0.077303022 -0.057003796 -0.031761475
-0.077706896 -0.057342805 -0.031973701
-0.078201495 -0.057566378 -0.031941392
-0.078696087 -0.057789955 -0.031909078
-0.079282075 -0.057898398 -0.031632189
-0.0806958 -0.056967214 -0.029144837
-0.081654891 -0.056611646 -0.027878594
-0.082152173 -0.056836434 -0.027846107
-0.082463533 -0.057293143 -0.028307689
-0.083707042 -0.056588814 -0.026294826
-0.084205329 -0.05681406 -0.026262274
-0.084703632 -0.057039306 -0.026229721
-0.085013889 -0.057496812 -0.026693342
-0.085794494 -0.057373635 -0.025916263
-0.086576708 -0.057250202 -0.0251376
-0.087075673 -0.057475757 -0.025105001
-0.0876697 -0.057585053 -0.024823343
-0.088837199 -0.056995213 -0.023042472
-0.089721568 -0.056753952 -0.022006981
-0.090030089 -0.057214148 -0.022476017
-0.089857921 -0.058255441 -0.024194188
-0.09006951 -0.05882908 -0.024909418
-0.1011497 -0.066842489 -0.028768543
-0.10124935 -0.067515209 -0.029719381
-0.10154646 -0.067962714 -0.030177675
-0.10223955 -0.067962818 -0.029654691
-0.10273464 -0.068186618 -0.029622346
-0.10402841 -0.067514405 -0.027620539
-0.1121861 -0.061552681 -0.012370117
-0.11237763 -0.062131219 -0.013107955
-0.11277875 -0.062476296 -0.013331523
-0.11328477 -0.06270504 -0.013298464
-0.11421302 -0.06246892 -0.012237701
-0.11482565 -0.062581643 -0.011947214
-0.11533256 -0.062810786 -0.011914099
-0.11573321 -0.063156098 -0.012138388
-0.11570887 -0.063964456 -0.013389701
-0.11589643 -0.064539507 -0.014125214
-0.11640176 -0.064767934 -0.014092201
-0.11733302 -0.064534992 -0.013033996
-0.11794589 -0.064648271 -0.012744186
-0.11877358 -0.064530462 -0.011939763
-0.0065308036 -0.0095227063 -0.011649368
-0.0068347803 -0.010161511 -0.01239542
-0.0071381219 -0.01079898 -0.013139913
-0.0069569955 -0.012377408 -0.01568795
-0.0065713832 -0.014344339 -0.018984009
-0.0069408403 -0.014839063 -0.019460475
-0.0074472204 -0.015067966 -0.019427394
-0.012019037 -0.012337969 -0.011801612
-0.012388174 -0.012838747 -0.012287569
-0.012899319 -0.013069802 -0.012254177
-0.013410463 -0.013300858 -0.012220784
-0.013849966 -0.013666313 -0.012446842
-0.014145773 -0.01429968 -0.013190762
-0.014728053 -0.014396458 -0.012898485
-0.015599545 -0.01395649 -0.011567701
-0.014465351 -0.018404106 -0.01921895
-0.014473402 -0.019550407 -0.020963904
-0.014978386 -0.019778678 -0.020930914
-0.015340788 -0.020267962 -0.021404402
-0.015702691 -0.020756571 -0.021877239
-0.016064096 -0.021244509 -0.022349428
-0.016210821 -0.022120308 -0.02357636
-0.016571011 -0.02260614 -0.024046252
-0.018080533 -0.02101806 -0.020479415
-0.019824324 -0.019019747 -0.016108852
-0.020332459 -0.019249443 -0.016075658
-0.020106714 -0.020790519 -0.018600363
-0.020613095 -0.021019423 -0.018567281
-0.021119474 -0.021248324 -0.0185342
-0.021478638 -0.021737944 -0.019010648
-0.021103535 -0.023522519 -0.022020206
-0.021095622 -0.024651431 -0.023750661
-0.021379225 -0.025263321 -0.024470998
-0.021954611 -0.025362296 -0.024187291
-0.022310374 -0.025845243 -0.024656119
-0.023180224 -0.025432294 -0.023367852
-0.027670121 -0.018743601 -0.0097568585
-0.028863475 -0.027678097 -0.022502812
-0.027859867 -0.030436952 -0.027475681
-0.02813492 -0.031039391 -0.028188044
-0.028634232 -0.031265099 -0.028155424
-0.029284019 -0.031240199 -0.027626254
-0.029934693 -0.031215264 -0.027096359
-0.030283323 -0.03169192 -0.027560968
-0.03002755 -0.033165116 -0.030004678
-0.030224096 -0.03388647 -0.03095803
-0.030721376 -0.034111258 -0.030925544
-0.031673107 -0.033592068 -0.029413095
-0.031943437 -0.034189451 -0.030121312
-0.032289166 -0.03466199 -0.030581819
-0.032558415 -0.03525728 -0.031287648
-0.03259933 -0.036220048 -0.032727402
-0.0335523 -0.03570655 -0.031222718
-0.034049243 -0.035931185 -0.031190252
-0.034392964 -0.036401745 -0.031649258
-0.034583073 -0.037116773 -0.03259781
-0.035232488 -0.037095997 -0.032075223
-0.038691342 -0.032605339 -0.02260115
-0.039431769 -0.032455351 -0.021812394
-0.039935023 -0.032682844 -0.021779519
-0.044655789 -0.026254145 -0.0083911838
-0.045250967 -0.026355473 -0.0080961045
-0.045266613 -0.027367089 -0.0096295793
-0.045778114 -0.027598305 -0.0095961634
-0.046289615 -0.027829522 -0.0095627476
-0.046634864 -0.028319502 -0.010050266
-0.046481896 -0.02958137 -0.01209346
-0.046000224 -0.031346343 -0.015153618
-0.046260741 -0.031957209 -0.015889844
-0.046028044 -0.033325221 -0.018155437
-0.046533555 -0.033553731 -0.018122414
-0.0469568 -0.033908177 -0.018343944
-0.046804678 -0.035140373 -0.020341175
-0.04730862 -0.035368174 -0.020308252
-0.047894895 -0.035470963 -0.020022139
-0.049001232 -0.037749477 -0.022666479
-0.048844464 -0.038963608 -0.024639623
-0.048852403 -0.039926346 -0.02610426
-0.048533477 -0.041372076 -0.028553747
-0.048623465 -0.042203654 -0.029756017
-0.049120747 -0.042428445 -0.029723532
-0.049618028 -0.042653237 -0.029691044
-0.050033342 -0.042998828 -0.029905051
-0.050530452 -0.043223545 -0.029872576
-0.051357113 -0.042965144 -0.028853033
-0.053268421 -0.041123528 -0.02459522
-0.05507854 -0.047008861 -0.032217231
-0.055156983 -0.047826175 -0.033406436
-0.055235159 -0.048640743 -0.034591641
-0.055064332 -0.049804844 -0.03649899
-0.055473637 -0.050144561 -0.036708556
-0.05646538 -0.049663126 -0.035223536
-0.057125803 -0.049650915 -0.03470571
-0.057871148 -0.049520932 -0.033943791
-0.058702417 -0.049272683 -0.032936275
-0.059197009 -0.04949626 -0.032903962
-0.059691608 -0.049719833 -0.032871652
-0.060186207 -0.04994341 -0.032839339
-0.060936406 -0.049813412 -0.032073729
-0.06533628 -0.044649825 -0.020860462
-0.066547222 -0.043902501 -0.018803598
-0.067586109 -0.043396387 -0.017245263
-0.067555465 -0.044358257 -0.018737732
-0.067970321 -0.044708021 -0.018958442
-0.068117149 -0.045422193 -0.019938406
-0.067287333 -0.04746059 -0.023679379
-0.06743414 -0.048166387 -0.024646554
-0.06784565 -0.048511986 -0.024863448
-0.068522841 -0.048498821 -0.02433149
-0.069023006 -0.048724916 -0.024298815
-0.069078483 -0.049547378 -0.025513241
-0.069400012 -0.050010912 -0.025978295
-0.070255481 -0.049760796 -0.024949625
-0.07346534 -0.046379708 -0.017358685
-0.074153177 -0.046364944 -0.016816242
-0.074566618 -0.046714738 -0.017038072
-0.075071603 -0.046943009 -0.01700508
-0.075300775 -0.04753463 -0.017735599
-0.07543768 -0.048245657 -0.01871825
-0.075757712 -0.048714221 -0.019192122
-0.075893715 -0.049422167 -0.020170756
-0.076304577 -0.049769238 -0.020390371
-0.075616293 -0.051545516 -0.023623971
-0.075842805 -0.052126992 -0.024341002
-0.076068848 -0.052707281 -0.025056567
-0.076203316 -0.053404018 -0.02601924
-0.076610729 -0.053746901 -0.026235078
-0.076926582 -0.0542068 -0.026698852
-0.077516153 -0.054314796 -0.026418213
-0.078014441 -0.054540046 -0.026385659
-0.078512743 -0.054765292 -0.026353108
-0.07736548 -0.057083372 -0.030761246
-0.07749711 -0.057768568 -0.031708434
-0.077991702 -0.057992145 -0.031676121
-0.078486301 -0.058215722 -0.031643812
-0.081096895 -0.055774815 -0.025942
-0.081595361 -0.056000136 -0.025909435
-0.082373284 -0.055875305 -0.025130764
-0.082685545 -0.056334224 -0.025595762
-0.082997382 -0.056792516 -0.026060129
-0.083682805 -0.056785021 -0.025530612
-0.085406244 -0.055490866 -0.022251077
-0.085907087 -0.055717271 -0.022218358
-0.086407937 -0.055943672 -0.022185639
-0.086339071 -0.05687169 -0.02365529
-0.086365059 -0.057679739 -0.024869986
-0.08676929 -0.058021396 -0.025086358
-0.087362997 -0.058130845 -0.02480479
-0.088624969 -0.057425916 -0.022774128
-0.089317046 -0.057418823 -0.022240197
-0.08972165 -0.05776174 -0.022458209
-0.090318397 -0.057871472 -0.022174779
-0.10183172 -0.06782952 -0.028684027
-0.10232732 -0.068053551 -0.028651651
-0.10282292 -0.068277583 -0.028619274
-0.11216292 -0.062566981 -0.012836461
-0.1125641 -0.062911905 -0.013060123
-0.11307014 -0.063140646 -0.013027065
-0.11378698 -0.06313742 -0.01248032
-0.11461064 -0.063018009 -0.011675346
-0.11511754 -0.063247144 -0.01164223
-0.11551826 -0.063592315 -0.011866612
-0.1154943 -0.06439992 -0.013118395
-0.11578804 -0.064859286 -0.013598084
-0.11661235 -0.064741857 -0.012795655
-0.11722497 -0.06485521 -0.012505762
-0.11762441 -0.065199338 -0.012729538
-0.11855865 -0.064966671 -0.011667988
-0.0061471011 -0.0090509709 -0.010105134
-0.00631369 -0.0099633308 -0.011374842
-0.006548773 -0.010737141 -0.012380745
-0.0069214627 -0.011238685 -0.012865962
-0.0068099881 -0.012681406 -0.01515752
-0.0063564451 -0.01478055 -0.018712232
-0.0067945891 -0.015142336 -0.018934097
-0.0073011443 -0.015371318 -0.018901005
-0.011802075 -0.012778287 -0.011527278
-0.011958415 -0.013681935 -0.012791418
-0.011901914 -0.014983143 -0.014824869
-0.011916228 -0.016144488 -0.01659075
-0.012565687 -0.016108673 -0.016044391
-0.013073998 -0.016338449 -0.016011184
-0.013582308 -0.016568225 -0.015977977
-0.014233373 -0.01653268 -0.015430815
-0.014250635 -0.018839864 -0.018947456
-0.014259204 -0.019985115 -0.020693064
-0.014764189 -0.020213386 -0.020660074
-0.015269174 -0.020441659 -0.020627085
-0.015417567 -0.021320645 -0.021859508
-0.015850339 -0.021678319 -0.022079147
-0.01599743 -0.022553377 -0.023306543
-0.016357766 -0.023038913 -0.023776619
-0.019686595 -0.018171106 -0.013809921
-0.02019614 -0.01840144 -0.013776633
-0.020705687 -0.018631773 -0.013743346
-0.020993534 -0.019258212 -0.01448385
-0.020398306 -0.021455333 -0.018295694
-0.0208313 -0.021814566 -0.018517548
-0.020385835 -0.023728531 -0.021782847
-0.020379644 -0.024856949 -0.023513872
-0.020809529 -0.025212431 -0.023732344
-0.0211662 -0.025695646 -0.024201643
-0.021814656 -0.025666784 -0.02366668
-0.022464002 -0.025637882 -0.023130981
-0.023483442 -0.024966715 -0.021332571
-0.027423816 -0.031243509 -0.027952867
-0.027624438 -0.031969439 -0.028911602
-0.02834752 -0.031820029 -0.02813573
-0.028921751 -0.03192063 -0.027855009
-0.029571736 -0.031896178 -0.027325632
-0.029920375 -0.032372043 -0.02778977
-0.029816333 -0.033593774 -0.02973761
-0.030163625 -0.034066875 -0.030198537
-0.030661244 -0.034291815 -0.030166026
-0.031234505 -0.034392949 -0.029886853
-0.031580716 -0.03486535 -0.03034752
-0.031774957 -0.035583664 -0.031299438
-0.031893037 -0.036422782 -0.032493815
-0.032388974 -0.036646966 -0.03246142
-0.033341516 -0.03613434 -0.03095619
-0.033914905 -0.036235958 -0.030677661
-0.034565412 -0.036214538 -0.030152533
-0.035062857 -0.036439404 -0.030120036
-0.035791803 -0.036294904 -0.029347239
-0.037378699 -0.034787368 -0.025839789
-0.039218307 -0.032888569 -0.021542484
-0.039800998 -0.032990366 -0.021257186
-0.043862332 -0.027604233 -0.0099430857
-0.044373479 -0.027835289 -0.0099096941
-0.044719823 -0.028324924 -0.010396631
-0.045230608 -0.028555818 -0.010363261
-0.045906909 -0.028528458 -0.0098095164
-0.046252187 -0.029017609 -0.010296522
-0.046100385 -0.030276662 -0.012337613
-0.046196621 -0.031146217 -0.013595088
-0.046045654 -0.032393724 -0.015617881
-0.046059486 -0.033382021 -0.017119383
-0.046319135 -0.033988889 -0.017851293
-0.046332356 -0.034970831 -0.01934354
-0.046590921 -0.035574183 -0.020070894
-0.047094863 -0.035801988 -0.020037971
-0.047681063 -0.035904925 -0.019751765
-0.048788209 -0.038181804 -0.022397123
-0.048632018 -0.039394751 -0.024371004
-0.048804328 -0.040111795 -0.025337568
-0.04840374 -0.041679416 -0.028039042
-0.048412535 -0.042631734 -0.02948931
-0.048746753 -0.04309807 -0.029949781
-0.0492437 -0.043322705 -0.029917317
-0.050314687 -0.042701561 -0.028156418
-0.051722284 -0.041590333 -0.025390979
-0.053812623 -0.039485734 -0.020589052
-0.055620156 -0.046362568 -0.029741656
-0.054781068 -0.048488326 -0.033628911
-0.054859821 -0.049301233 -0.034812942
-0.055270024 -0.049641803 -0.035023503
-0.055264901 -0.050568189 -0.036444627
-0.058492623 -0.04969845 -0.032671005
-0.058818243 -0.050157506 -0.03312685
-0.059312508 -0.05038093 -0.033094559
-0.059806775 -0.050604358 -0.033062268
-0.0607264 -0.050239611 -0.031808194
-0.065211102 -0.044961136 -0.020338355
-0.066333398 -0.044336461 -0.018533226
-0.06737183 -0.043831248 -0.016974328
-0.067876995 -0.044059597 -0.016941328
-0.068382159 -0.04428795 -0.016908327
-0.068171211 -0.045491204 -0.018908815
-0.067783646 -0.046929263 -0.021402217
-0.067841455 -0.04775789 -0.022626158
-0.068342641 -0.047984444 -0.022593416
-0.069468595 -0.047369156 -0.020799877
-0.069523558 -0.048197594 -0.022025684
-0.069311023 -0.049381565 -0.023997886
-0.06981118 -0.049607657 -0.02396521
-0.071568348 -0.048157267 -0.020416319
-0.073525101 -0.046449922 -0.016323235
-0.074030437 -0.046678349 -0.016290221
-0.074352413 -0.047149446 -0.016767234
-0.074857406 -0.047377717 -0.016734241
-0.075178593 -0.047848009 -0.01721062
-0.075407512 -0.048438288 -0.017940423
-0.075727776 -0.048907045 -0.018415151
-0.075680472 -0.049854942 -0.019901123
-0.075907998 -0.050440941 -0.020625414
-0.075312972 -0.052094668 -0.023605783
-0.075630799 -0.05255726 -0.024072932
-0.075857058 -0.053137105 -0.024788769
-0.075991817 -0.053833261 -0.025751809
-0.076308206 -0.054293253 -0.026216067
-0.076715291 -0.054635599 -0.026431693
-0.077213421 -0.054860771 -0.02639915
-0.077803083 -0.054968994 -0.026118411
-0.084554248 -0.048979528 -0.011845377
-0.085062206 -0.04920914 -0.011812193
-0.084517792 -0.05076658 -0.01460694
-0.082188725 -0.054563612 -0.022178778
-0.082408734 -0.055142589 -0.02289802
-0.083190411 -0.05501641 -0.022113336
-0.083128124 -0.055946328 -0.023583138
-0.083627954 -0.056172263 -0.023550484
-0.084692955 -0.055695616 -0.022015179
-0.085288398 -0.055804715 -0.021731405
-0.085884243 -0.055913892 -0.021447439
-0.086290427 -0.056257673 -0.021665944
-0.086696342 -0.056601219 -0.021884298
-0.086626887 -0.057527889 -0.023354566
-0.086557709 -0.058450785 -0.024818836
-0.087341234 -0.058328368 -0.02403852
-0.088508338 -0.0577401 -0.022255167
-0.089104675 -0.057849824 -0.021971671
-0.089509353 -0.058192592 -0.022189772
-0.090009861 -0.05841884 -0.022157075
-0.11340219 -0.062184375 -0.010212472
-0.11327641 -0.063112281 -0.011727254
-0.11420593 -0.062876403 -0.010662847
-0.11524436 -0.062523186 -0.009336492
-0.11522079 -0.063335158 -0.010596548
-0.11509132 -0.064260043 -0.012109489
-0.11538564 -0.064719975 -0.012590372
-0.11578558 -0.065064043 -0.012814041
-0.11639771 -0.06517747 -0.012524255
-0.11722351 -0.065060243 -0.011719881
-0.11751646 -0.065519787 -0.012201198
-0.11920308 -0.064477421 -0.0093299234
-0.0058896854 -0.010810703 -0.011880348
-0.0061940146 -0.011447495 -0.012625378
-0.0065666917 -0.011948194 -0.013110085
-0.0067318003 -0.012851401 -0.01436884
-0.0066211871 -0.014285598 -0.016650159
-0.0066482369 -0.015445821 -0.018407354
-0.007361311 -0.015276838 -0.017607972
-0.011656041 -0.01308391 -0.010992805
-0.01117674 -0.0151913 -0.01458504
-0.010842043 -0.017014142 -0.017631685
-0.01099869 -0.017902683 -0.018874383
-0.011715534 -0.017736424 -0.018076314
-0.012645907 -0.017173333 -0.016508373
-0.013153689 -0.017402869 -0.016475201
-0.013661471 -0.017632404 -0.016442027
-0.017796174 -0.014688914 -0.0087981401
-0.015197461 -0.020615594 -0.019848693
-0.01534608 -0.021494888 -0.021083305
-0.015707854 -0.021982485 -0.0215562
-0.016140528 -0.022339933 -0.021775944
-0.016787756 -0.022308664 -0.021237472
-0.020132868 -0.017415665 -0.011205002
-0.020644013 -0.017646721 -0.01117161
-0.02122937 -0.0177448 -0.01087822
-0.019160932 -0.02483521 -0.023309927
-0.018797757 -0.026595524 -0.026282353
-0.019514756 -0.026439993 -0.025500603
-0.020450959 -0.025900953 -0.023965098
-0.020953177 -0.026127974 -0.023932287
-0.021747775 -0.025843469 -0.022894111
-0.022691799 -0.025301348 -0.021347955
-0.023565598 -0.0248859 -0.020049118
-0.0267871 -0.031322353 -0.027469361
-0.026839996 -0.032298055 -0.028924242
-0.027264036 -0.032647986 -0.02913902
-0.027762329 -0.032873236 -0.029106466
-0.028559977 -0.032600135 -0.028083455
-0.029209273 -0.032576159 -0.027554592
-0.029859452 -0.032552153 -0.02702501
-0.030207895 -0.033027578 -0.027489353
-0.030027788 -0.034371424 -0.029684914
-0.030525574 -0.034596443 -0.029652392
-0.031023361 -0.034821462 -0.029619873
-0.031369716 -0.035293568 -0.030080723
-0.031564243 -0.036011308 -0.031033004
-0.031682678 -0.0368497 -0.032227833
-0.032254346 -0.036951359 -0.031950295
-0.03275045 -0.037175614 -0.031917885
-0.033856962 -0.036417894 -0.029918235
-0.034431111 -0.036519714 -0.029639069
-0.034928732 -0.036744654 -0.02960656
-0.035812337 -0.036353879 -0.02833809
-0.03701042 -0.03546631 -0.026070073
-0.038767591 -0.033698134 -0.022029044
-0.042400051 -0.028974755 -0.012038668
-0.043154392 -0.028818946 -0.011228193
-0.043419145 -0.02943542 -0.011972091
-0.044174548 -0.029280096 -0.011161547
-0.044766873 -0.029382017 -0.010868765
-0.045442142 -0.02935526 -0.010315951
-0.045704786 -0.029971818 -0.011061578
-0.045966879 -0.03058709 -0.01180565
-0.046311032 -0.031073283 -0.012289749
-0.046406869 -0.031941157 -0.013546871
-0.046337649 -0.033059452 -0.015312791
-0.046350874 -0.034046371 -0.016814927
-0.045873217 -0.035780199 -0.019833535
-0.046377163 -0.036008 -0.019800613
-0.046881106 -0.036235798 -0.01976769
-0.047467235 -0.036338888 -0.019481391
-0.048739862 -0.038366947 -0.021624215
-0.048501611 -0.039703097 -0.023852056
-0.048592176 -0.040542349 -0.025069315
-0.048355512 -0.04186549 -0.027276013
-0.048609026 -0.04245485 -0.027986886
-0.04845459 -0.043646362 -0.029929573
-0.048463255 -0.044591788 -0.031371597
-0.051010218 -0.041794728 -0.025155481
-0.053095911 -0.039691463 -0.020352019
-0.055065583 -0.049137015 -0.033331629
-0.057684068 -0.051870916 -0.035535865
-0.05876521 -0.051275551 -0.033804208
-0.059597123 -0.051029835 -0.03279718
-0.064407058 -0.045288112 -0.02035404
-0.065438673 -0.044786252 -0.018803181
-0.066563442 -0.044160075 -0.016991245
-0.067604147 -0.04365363 -0.015426469
-0.068020567 -0.044004958 -0.01564916
-0.068526417 -0.044233624 -0.015616112
-0.068673044 -0.044951156 -0.016604394
-0.068282694 -0.046395022 -0.019112553
-0.068072744 -0.047588386 -0.021100156
-0.068753116 -0.047574531 -0.020563252
-0.069255501 -0.047801632 -0.020530431
-0.069757886 -0.04802873 -0.020497611
-0.070260279 -0.048255827 -0.020464789
-0.070852607 -0.048362717 -0.020179609
-0.07280542 -0.046656497 -0.016085222
-0.073402099 -0.046763461 -0.015796863
-0.073816083 -0.047113359 -0.016019195
-0.074138224 -0.047584154 -0.016496394
-0.074643202 -0.047812425 -0.016463403
-0.075148195 -0.048040695 -0.016430411
-0.075469188 -0.048510529 -0.016906997
-0.075514093 -0.049340706 -0.018144963
-0.075834066 -0.049808521 -0.018619228
-0.075511962 -0.051111724 -0.020860136
-0.075100824 -0.052525226 -0.02333753
-0.07514596 -0.053341221 -0.024553593
-0.075645261 -0.053566929 -0.024520973
-0.07596232 -0.054027729 -0.024986703
-0.07609684 -0.054722201 -0.025948819
-0.076595135 -0.054947447 -0.025916265
-0.077002138 -0.055289574 -0.026131991
-0.077500261 -0.055514745 -0.026099447
-0.077632472 -0.056206021 -0.027058423
-0.08484675 -0.049646407 -0.011539759
-0.083827808 -0.051801667 -0.015614347
-0.082256958 -0.054641664 -0.02115641
-0.08247713 -0.055221155 -0.021877438
-0.082977973 -0.055447556 -0.021844717
-0.083384879 -0.055791263 -0.022062937
-0.08369752 -0.056251805 -0.022531616
-0.084009729 -0.056711715 -0.022999655
-0.085075885 -0.056236006 -0.021462694
-0.085576899 -0.056462485 -0.021429963
-0.086077921 -0.056688964 -0.021397231
-0.086199187 -0.057382647 -0.022368183
-0.086414881 -0.057958156 -0.023086496
-0.086724922 -0.058416434 -0.023553681
-0.087129444 -0.058758195 -0.023770723
-0.088200524 -0.058287326 -0.022237439
-0.088796549 -0.058397196 -0.021954034
-0.089777358 -0.058041155 -0.020665111
-0.089797556 -0.058849689 -0.021888638
-0.11519442 -0.064349003 -0.011065376
-0.11538292 -0.064924851 -0.01180482
-0.11599553 -0.065038346 -0.011514385
-0.11618306 -0.065613076 -0.012252855
-0.11700864 -0.065496311 -0.0114482
-0.11751521 -0.065725289 -0.011415108
-0.11898755 -0.064914845 -0.0090573961
-0.0060865618 -0.010437445 -0.010043838
-0.0059085283 -0.012022075 -0.012610639
-0.0061436025 -0.01279114 -0.013612375
-0.0065156673 -0.013290037 -0.014095554
-0.0066805775 -0.01418935 -0.015350417
-0.006776195 -0.015218527 -0.016857153
-0.0072838021 -0.015447984 -0.01682399
-0.0088325525 -0.013675474 -0.012928516
-0.011439003 -0.013524381 -0.010718376
-0.010960756 -0.015629631 -0.014311943
-0.010557022 -0.017582631 -0.017615322
-0.010783975 -0.018338442 -0.018602889
-0.01129018 -0.018567266 -0.018569818
-0.011796385 -0.01879609 -0.018536748
-0.01272596 -0.01823578 -0.016971393
-0.013375081 -0.018201463 -0.016426055
-0.015967174 -0.014569424 -0.0088851703
-0.015345763 -0.021539347 -0.020052416
-0.015707912 -0.022027418 -0.020526508
-0.016069563 -0.022514818 -0.020999951
-0.016717186 -0.022483647 -0.020460574
-0.017509781 -0.022192748 -0.019412603
-0.017726462 -0.022939876 -0.020394638
-0.020938346 -0.018317789 -0.010864073
-0.017942218 -0.024813473 -0.023105983
-0.018444953 -0.025040727 -0.023073137
-0.018443424 -0.026163304 -0.024796933
-0.018585386 -0.027026523 -0.026013825
-0.019302171 -0.026871433 -0.025231801
-0.020237934 -0.02633328 -0.023695741
-0.021031553 -0.026049057 -0.02265724
-0.021974098 -0.025507359 -0.021110596
-0.022478042 -0.02573516 -0.021077676
-0.023351474 -0.025320459 -0.019778373
-0.024750357 -0.023998534 -0.016688086
-0.025858849 -0.023187736 -0.014602546
-0.026426656 -0.032002494 -0.027698144
-0.026554381 -0.032851689 -0.028904323
-0.027052674 -0.033076938 -0.028871769
-0.027550969 -0.033302184 -0.028839214
-0.02834833 -0.033029672 -0.027815839
-0.03020631 -0.030999817 -0.023290761
-0.031242598 -0.030342678 -0.021495819
-0.031745851 -0.030570168 -0.021462942
-0.030722599 -0.033309311 -0.0264429
-0.030389812 -0.034901276 -0.02913841
-0.030812215 -0.035249975 -0.029352894
-0.031083148 -0.035845067 -0.03006045
-0.031127088 -0.036807291 -0.03150367
-0.031396877 -0.037398994 -0.032206893
-0.031968255 -0.037500802 -0.031929448
-0.03254002 -0.037602678 -0.03165181
-0.033645958 -0.036846116 -0.029651435
-0.034373458 -0.036702029 -0.028878162
-0.035102438 -0.036557648 -0.028103311
-0.036298346 -0.035670705 -0.025834577
-0.03695425 -0.035648778 -0.025303099
-0.042693462 -0.029643722 -0.011732094
-0.042877 -0.030386733 -0.012732964
-0.043712556 -0.030104389 -0.011665517
-0.044222102 -0.030334724 -0.011632229
-0.044896059 -0.030308666 -0.011080713
-0.045241196 -0.030795392 -0.011565653
-0.045750745 -0.031025724 -0.011532364
-0.046177641 -0.031383879 -0.011757955
-0.046356283 -0.032124218 -0.012758442
-0.046534423 -0.032862503 -0.013756156
-0.046136234 -0.03448198 -0.016543526
-0.045986161 -0.035714295 -0.018548461
-0.046081699 -0.036566447 -0.019783605
-0.046749286 -0.036544967 -0.01924395
-0.047335573 -0.036648199 -0.018957371
-0.04778808 -0.039907914 -0.023616076
-0.04787986 -0.040746816 -0.024833737
-0.047645375 -0.042069327 -0.027041154
-0.04798102 -0.042537317 -0.027504539
-0.048479315 -0.042762563 -0.027471988
-0.048487958 -0.043712672 -0.028923411
-0.06200894 -0.045054723 -0.020720473
-0.05730797 -0.052527688 -0.035756014
-0.057967633 -0.052517425 -0.035239585
-0.059387475 -0.051455315 -0.032532088
-0.064721219 -0.04499219 -0.018565904
-0.06522499 -0.045219913 -0.018532993
-0.066349253 -0.044594787 -0.016720405
-0.067478932 -0.043966636 -0.014899061
-0.067985147 -0.044195462 -0.014865992
-0.068401575 -0.044546727 -0.015088952
-0.068727881 -0.04501994 -0.015567449
-0.068247616 -0.046586249 -0.018335527
-0.068304822 -0.047418304 -0.019568922
-0.068540007 -0.048007008 -0.020293802
-0.069042407 -0.048234109 -0.020260982
-0.069544792 -0.048461206 -0.020228161
-0.071218044 -0.047120024 -0.016900085
-0.071994878 -0.046984468 -0.01610245
-0.072591074 -0.047091506 -0.015814196
-0.073096402 -0.047319934 -0.015781183
-0.073510364 -0.047669519 -0.016003445
-0.073649921 -0.04838134 -0.016989833
-0.074154384 -0.048609376 -0.016956875
-0.074933991 -0.048475403 -0.016159572
-0.075438984 -0.048703678 -0.016126582
-0.07530041 -0.049774371 -0.017874777
-0.075712323 -0.050122034 -0.018095633
-0.075207748 -0.051662717 -0.020842837
-0.074797779 -0.053073857 -0.023319446
-0.074752733 -0.054006152 -0.024784284
-0.075070173 -0.054466341 -0.025249517
-0.075296469 -0.055042867 -0.025962455
-0.07570377 -0.055384841 -0.026178094
-0.076383777 -0.055376396 -0.025649015
-0.076882072 -0.055601642 -0.025616461
-0.07728897 -0.055943545 -0.025832288
-0.077239022 -0.05686653 -0.027286554
-0.077371314 -0.057554577 -0.028241973
-0.084123328 -0.049854062 -0.01130051
-0.084631287 -0.050083678 -0.011267325
-0.083613537 -0.052236523 -0.015343414
-0.082044296 -0.05507325 -0.020887516
-0.082171157 -0.055769615 -0.021859827
-0.082671829 -0.055995937 -0.021827118
-0.082797661 -0.056690093 -0.022796821
-0.083203934 -0.05703279 -0.023014342
-0.08342246 -0.057608068 -0.023731263
-0.084109582 -0.057601117 -0.023199078
-0.084609233 -0.057826977 -0.023166435
-0.085203223 -0.057936542 -0.022883732
-0.085797623 -0.058046184 -0.022600835
-0.086297616 -0.058272202 -0.022568172
-0.08670269 -0.058614358 -0.022785774
-0.086917646 -0.059188019 -0.023502925
-0.087416962 -0.059413727 -0.023470307
-0.089063339 -0.058246113 -0.020428969
-0.11519156 -0.064553976 -0.010277412
-0.11548632 -0.065014511 -0.010760391
-0.11599322 -0.065243647 -0.010727276
-0.11639365 -0.065588124 -0.010951974
-0.11700703 -0.065701924 -0.010661045
-0.11826389 -0.065122575 -0.0088180639
-0.11877201 -0.065352261 -0.0087848669
-0.0056232414 -0.012596257 -0.012595909
-0.0059273196 -0.01323008 -0.013338898
-0.0062995348 -0.013728672 -0.013822269
-0.0064648199 -0.014627225 -0.015077605
-0.0066982275 -0.01538975 -0.016072107
-0.0072061853 -0.015619365 -0.016038923
-0.007714144 -0.015848981 -0.01600574
-0.0091263745 -0.014345373 -0.012621514
-0.010480773 -0.012963122 -0.0094677573
-0.010780932 -0.013598993 -0.010216874
-0.010305719 -0.015704611 -0.013814127
-0.010393932 -0.016732063 -0.015326145
-0.010342009 -0.018018991 -0.017343454
-0.01056926 -0.0187742 -0.018331394
-0.011075464 -0.019003024 -0.018298324
-0.01158167 -0.019231848 -0.018265255
-0.012299118 -0.019066965 -0.017466554
-0.013088888 -0.01877013 -0.01641009
-0.013952103 -0.018340487 -0.015093694
-0.016189748 -0.015376824 -0.0088381944
-0.016775187 -0.015474386 -0.0085431691
-0.01520281 -0.021844093 -0.01952769
-0.015493861 -0.022461828 -0.020255856
-0.015855659 -0.022948928 -0.020729482
-0.016145539 -0.023564463 -0.021455159
-0.01643482 -0.024178732 -0.022179343
-0.016509382 -0.02517646 -0.023656052
-0.01694015 -0.025531469 -0.023874249
-0.017227629 -0.026141619 -0.024593474
-0.017729159 -0.026368327 -0.024560709
-0.018734446 -0.025700754 -0.022770662
-0.019092659 -0.026183799 -0.023240782
-0.019450381 -0.026666185 -0.023710258
-0.020024911 -0.026765605 -0.023426386
-0.020818235 -0.026481977 -0.022387516
-0.021760341 -0.025941171 -0.020840315
-0.022485085 -0.025783949 -0.020047842
-0.02313735 -0.025755018 -0.019507626
-0.024535345 -0.024434896 -0.016416216
-0.02526723 -0.024275187 -0.015614491
-0.026076067 -0.023985159 -0.014553996
-0.027600469 -0.024674244 -0.014454409
-0.025863891 -0.031956509 -0.026966216
-0.026214937 -0.032432176 -0.027430439
-0.026639767 -0.03278254 -0.027646016
-0.026841316 -0.033505887 -0.028604517
-0.027861819 -0.032859646 -0.026835693
-0.030403709 -0.02968679 -0.020027449
-0.031137625 -0.029533381 -0.019233864
-0.031411942 -0.030142548 -0.019961581
-0.031762432 -0.03062387 -0.020434923
-0.031882193 -0.031483289 -0.021664716
-0.031010412 -0.033965513 -0.026142176
-0.030676551 -0.035555027 -0.02883881
-0.030872216 -0.03627314 -0.029793743
-0.030690819 -0.037601661 -0.031973388
-0.031111265 -0.037947915 -0.032185972
-0.031606864 -0.038171943 -0.032153595
-0.032253832 -0.038151901 -0.03163106
-0.033434961 -0.037274338 -0.029384637
-0.034546342 -0.036514822 -0.027372653
-0.035354044 -0.036246408 -0.026346233
-0.03639733 -0.03560517 -0.024567785
-0.036898006 -0.035831492 -0.024535077
-0.041320093 -0.030876014 -0.013558119
-0.041666511 -0.031360663 -0.014039664
-0.042174295 -0.031590197 -0.014006491
-0.043170005 -0.031054771 -0.012426815
-0.043924104 -0.030901348 -0.01161787
-0.044515517 -0.031003693 -0.011325655
-0.045025062 -0.031234026 -0.011292367
-0.045864772 -0.03095247 -0.010221431
-0.046292223 -0.031311151 -0.01044779
-0.046140522 -0.032562092 -0.01248563
-0.045497406 -0.034563001 -0.016049571
-0.045757726 -0.035168856 -0.016782843
-0.045772109 -0.036148705 -0.018277807
-0.045868017 -0.037000112 -0.019513419
-0.046371788 -0.037227832 -0.019480508
-0.047237802 -0.039867159 -0.022878602
-0.045871183 -0.042895962 -0.028572191
-0.046368629 -0.043120831 -0.028539693
-0.046866078 -0.043345697 -0.028507197
-0.047282469 -0.043691173 -0.028721677
-0.048431132 -0.042949367 -0.026708573
-0.061795842 -0.045487199 -0.020451024
-0.057433624 -0.052485839 -0.034522559
-0.0585992 -0.051774487 -0.032543398
-0.060026195 -0.050706025 -0.029816721
-0.061120585 -0.050103657 -0.028059164
-0.061961628 -0.049854599 -0.02703716
-0.067025922 -0.04380548 -0.013891304
-0.067353636 -0.044279862 -0.014371288
-0.067770422 -0.044631217 -0.014594498
-0.068186931 -0.044982333 -0.014817553
-0.068603143 -0.045333207 -0.015040453
-0.068123184 -0.046898868 -0.017811475
-0.068537705 -0.047247637 -0.018032428
-0.068683706 -0.047958083 -0.019013327
-0.069545247 -0.047703084 -0.017966608
-0.070860736 -0.04684123 -0.015642209
-0.071456738 -0.046948254 -0.015353696
-0.071962252 -0.047176763 -0.015320673
-0.072376736 -0.047526516 -0.01554317
-0.072790921 -0.047876026 -0.015765514
-0.073113658 -0.048346136 -0.016242722
-0.073344775 -0.048936106 -0.016973775
-0.073757783 -0.049284417 -0.017195167
-0.074353352 -0.049392026 -0.016907884
-0.074582957 -0.049980313 -0.017637499
-0.07508672 -0.050208036 -0.017604588
-0.075223736 -0.050914418 -0.018586071
-0.074812599 -0.052331977 -0.021077167
-0.074585699 -0.05350427 -0.023051282
-0.074722372 -0.054200869 -0.024017999
-0.074858673 -0.05489558 -0.024982085
-0.075266533 -0.055237956 -0.025198275
-0.075492553 -0.055813499 -0.025911022
-0.076263465 -0.055688601 -0.025133146
-0.076761924 -0.055913929 -0.025100581
-0.077077679 -0.056372348 -0.025565129
-0.077210464 -0.057062466 -0.026524827
-0.077160738 -0.057981931 -0.027975718
-0.077930994 -0.057859618 -0.027202312
-0.082894102 -0.052443031 -0.015105483
-0.082266852 -0.054098163 -0.018125951
-0.081831634 -0.055504836 -0.020618621
-0.081492461 -0.056785244 -0.022844233
-0.082178965 -0.056777723 -0.022310896
-0.082492106 -0.057237118 -0.022778926
-0.082338162 -0.058276586 -0.024493458
-0.082557052 -0.058849227 -0.025207167
-0.083055176 -0.059074398 -0.025174623
-0.084021553 -0.058721203 -0.02389732
-0.084802747 -0.058599025 -0.023115797
-0.085491039 -0.058592748 -0.02258301
-0.086085536 -0.05870261 -0.022300011
-0.086585529 -0.058928628 -0.022267347
-0.086232729 -0.060195077 -0.024481865
-0.086636588 -0.060535535 -0.024698149
-0.11540128 -0.064527504 -0.0089706415
-0.11527131 -0.06545087 -0.010488522
-0.11567198 -0.065795273 -0.010713304
-0.11617871 -0.066024341 -0.0106802
-0.11700542 -0.065907829 -0.0098727997
-0.11772672 -0.065906517 -0.0093225492
-0.11866402 -0.065674096 -0.0082529644
-0.005642422 -0.013803043 -0.013323937
-0.0059460578 -0.014434729 -0.014065136
-0.0061118412 -0.015331435 -0.015319183
-0.0064827683 -0.015827017 -0.015799673
-0.0069907266 -0.016056633 -0.015766488
-0.0074986848 -0.016286248 -0.015733305
-0.008075838 -0.016383246 -0.015443325
-0.0087228604 -0.016347585 -0.014895982
-0.0090921065 -0.016842635 -0.015376933
-0.0096700126 -0.01693986 -0.01508673
-0.0096200937 -0.018226212 -0.0171047
-0.010126998 -0.018455353 -0.017071584
-0.010633903 -0.018684492 -0.01703847
-0.010721009 -0.019700816 -0.018536514
-0.011156893 -0.020060284 -0.018758055
-0.01187316 -0.019896429 -0.017960692
-0.012590909 -0.019732237 -0.017161675
-0.013310149 -0.019567702 -0.016361
-0.013888515 -0.019665699 -0.01607164
-0.016412169 -0.016183663 -0.008791252
-0.015416594 -0.021498192 -0.017729202
-0.015279811 -0.022896236 -0.019985203
-0.015143872 -0.02428565 -0.022227274
-0.015575849 -0.024641573 -0.022446334
-0.016078755 -0.024868906 -0.022413481
-0.016082892 -0.025992278 -0.024139445
-0.015945274 -0.027364133 -0.026355766
-0.016445439 -0.027590225 -0.026323091
-0.017516427 -0.026800064 -0.024291722
-0.019026866 -0.025235979 -0.020734645
-0.019096199 -0.0262329 -0.022216354
-0.019237433 -0.027098363 -0.023440994
-0.019811885 -0.027197933 -0.02315703
-0.020896534 -0.026403438 -0.021108596
-0.021546585 -0.026374985 -0.020570034
