# .PCD v0.7 - Point Cloud Data file format
VERSION 0.7
FIELDS x y z
SIZE 4 4 4
TYPE F F F
COUNT 1 1 1
WIDTH 1243
HEIGHT 1
VIEWPOINT 0 0 0 1 0 0 0
POINTS 1243
DATA ascii
-0.10513975 -0.050218679 -0.038058616
-0.10553518 -0.050560784 -0.038269218
-0.10603095 -0.05078489 -0.03823683
-0.10642593 -0.051126685 -0.038447298
-0.10682066 -0.051468249 -0.038657624
-0.10731608 -0.051692203 -0.038625259
-0.10791273 -0.051798776 -0.038350165
-0.10840833 -0.052022804 -0.038317792
-0.10890393 -0.052246831 -0.038285412
-0.10939953 -0.052470859 -0.038253035
-0.10989513 -0.052694891 -0.038220659
-0.11028868 -0.053035926 -0.03843106
-0.11088633 -0.05314295 -0.038155902
-0.11138193 -0.053366978 -0.038123526
-0.11198016 -0.053474147 -0.037848175
-0.11257878 -0.053581391 -0.037572637
-0.11307471 -0.053805571 -0.037540235
-0.11357065 -0.054029752 -0.037507836
-0.11396322 -0.054370567 -0.03771862
-0.11404557 -0.055060122 -0.038657375
-0.11454067 -0.055283926 -0.038625032
-0.11513935 -0.055391636 -0.038350124
-0.11573844 -0.055499416 -0.038075034
-0.11623387 -0.055723369 -0.038042668
-0.11662515 -0.056063272 -0.038253058
-0.11712041 -0.056287147 -0.038220704
-0.11761568 -0.056511026 -0.038188349
-0.11790184 -0.056966107 -0.038641084
-0.11818761 -0.05742057 -0.039093208
-0.11868221 -0.057644151 -0.039060894
-0.11917681 -0.057867724 -0.039028585
-0.11977645 -0.057976197 -0.038754094
-0.12027121 -0.058199849 -0.03872177
-0.1206606 -0.058538452 -0.038931649
-0.12104972 -0.058876827 -0.039141387
-0.12143859 -0.059214976 -0.039350983
-0.12193285 -0.059438404 -0.039318692
-0.12242711 -0.059661828 -0.039286405
-0.12302744 -0.059770834 -0.039012183
-0.025752468 0.0050307503 -0.0141419
-0.026576247 0.0053672199 -0.013060634
-0.019615712 -0.015484509 -0.048299801
-0.020893386 -0.014285122 -0.045640722
-0.021387648 -0.014508547 -0.045608427
-0.02159437 -0.015249676 -0.046533719
-0.022231976 -0.015214274 -0.046022985
-0.022581566 -0.015695924 -0.046469223
-0.023219837 -0.015660822 -0.045958448
-0.023713768 -0.015884098 -0.04592618
-0.024280442 -0.015978279 -0.045654383
-0.024774538 -0.01620163 -0.045622099
-0.025268635 -0.01642498 -0.045589823
-0.025836023 -0.016519375 -0.045317821
-0.02625683 -0.01687168 -0.045525264
-0.026824551 -0.016966226 -0.045253243
-0.027245024 -0.017318381 -0.045460708
-0.02751755 -0.01792717 -0.046146762
-0.028011149 -0.018150296 -0.046114512
-0.028653076 -0.018116847 -0.045603495
-0.029147007 -0.01834012 -0.04557123
-0.029715512 -0.01843513 -0.045299314
-0.030209608 -0.01865848 -0.045267034
-0.030703705 -0.018881829 -0.045234755
-0.031122731 -0.019233219 -0.045442156
-0.031541474 -0.019584373 -0.04564942
-0.031959936 -0.019935291 -0.045856543
-0.032453533 -0.020158416 -0.0458243
-0.032947131 -0.02038154 -0.045792054
-0.033440731 -0.020604664 -0.045759808
-0.033858415 -0.020955119 -0.045966823
-0.03442793 -0.021050913 -0.045695312
-0.035074178 -0.021019418 -0.045184013
-0.035568107 -0.021242693 -0.045151744
-0.036062039 -0.021465966 -0.045119476
-0.036479123 -0.021816369 -0.045326851
-0.03712697 -0.02178538 -0.044815127
-0.037775692 -0.021754349 -0.044302721
-0.038270123 -0.021977847 -0.044270419
-0.038764551 -0.02220135 -0.044238117
-0.039103359 -0.022678779 -0.044686012
-0.039597459 -0.022902129 -0.044653736
-0.040091552 -0.023125481 -0.044621456
-0.040507421 -0.02347544 -0.044829067
-0.041158199 -0.023445558 -0.044316836
-0.041809861 -0.023415636 -0.043803919
-0.043334913 -0.021985069 -0.040631503
-0.044953972 -0.020412946 -0.037186172
-0.046425663 -0.019085806 -0.034202117
-0.046926852 -0.019312363 -0.034169376
-0.047428038 -0.019538917 -0.034136634
-0.047929231 -0.019765472 -0.034103893
-0.048512507 -0.019862365 -0.03382406
-0.049096189 -0.019959325 -0.033544034
-0.049597722 -0.020186035 -0.03351127
-0.050347578 -0.020023657 -0.032735609
-0.05084962 -0.020250602 -0.032702807
-0.05135167 -0.020477543 -0.03267001
-0.051937118 -0.020574845 -0.032389205
-0.052272245 -0.021060906 -0.032852262
-0.052857809 -0.021158373 -0.032571614
-0.053108439 -0.021773009 -0.033281919
-0.053526107 -0.022128696 -0.033496525
-0.054027468 -0.022355329 -0.033463772
-0.054444682 -0.022710696 -0.033678245
-0.055030189 -0.022808596 -0.033398267
-0.055447061 -0.023163807 -0.033612758
-0.055948246 -0.023390362 -0.033580016
-0.056364663 -0.023745254 -0.033794377
-0.056780793 -0.024099903 -0.034008592
-0.057281639 -0.024326304 -0.033975873
-0.057697311 -0.024680633 -0.034189951
-0.058197986 -0.024906958 -0.034157243
-0.058698662 -0.025133282 -0.034124531
-0.059199337 -0.025359605 -0.034091823
-0.059614215 -0.025713461 -0.034305789
-0.060114719 -0.025939707 -0.034273092
-0.060529143 -0.026293246 -0.034486923
-0.061029479 -0.026519414 -0.034454234
-0.061443452 -0.026872633 -0.034667931
-0.061943617 -0.027098726 -0.034635257
-0.062357131 -0.027451627 -0.034848817
-0.062857121 -0.02767764 -0.034816153
-0.063270189 -0.028030226 -0.035029579
-0.063770011 -0.028256165 -0.034996931
-0.064357102 -0.028355686 -0.034718163
-0.064857095 -0.028581701 -0.034685496
-0.065357089 -0.028807716 -0.034652833
-0.065681584 -0.029286012 -0.035112292
-0.06626913 -0.029385854 -0.034833662
-0.066768944 -0.029611792 -0.03480101
-0.067268766 -0.029837729 -0.034768358
-0.067680188 -0.030189456 -0.034981728
-0.067914501 -0.030791944 -0.035686184
-0.068413638 -0.031017574 -0.035653576
-0.068824112 -0.031368423 -0.035866357
-0.069500826 -0.031343609 -0.035342794
-0.070000127 -0.031569317 -0.035310172
-0.070499443 -0.031795021 -0.035277553
-0.070909351 -0.032145724 -0.035490535
-0.071318969 -0.032496188 -0.035703368
-0.071907632 -0.032596983 -0.035425317
-0.072316915 -0.032947294 -0.035638176
-0.072815888 -0.033172853 -0.035605576
-0.073134653 -0.033647206 -0.036063455
-0.073543102 -0.033996798 -0.036275875
-0.074041568 -0.034222122 -0.036243312
-0.074540026 -0.03444745 -0.036210746
-0.075038493 -0.034672771 -0.036178183
-0.075536951 -0.034898095 -0.03614562
-0.076035418 -0.035123415 -0.036113057
-0.076533884 -0.035348743 -0.036080491
-0.076941036 -0.035697643 -0.036292836
-0.077347919 -0.036046304 -0.036505036
-0.077663064 -0.036517903 -0.036961526
-0.077977777 -0.036988862 -0.037417397
-0.078566901 -0.037090875 -0.037140775
-0.079064511 -0.037315816 -0.037108265
-0.079930805 -0.037049126 -0.036097519
-0.080244303 -0.037520204 -0.036554441
-0.080649778 -0.037868008 -0.036766406
-0.080962472 -0.03833805 -0.037222408
-0.081367299 -0.038685225 -0.037433933
-0.081771851 -0.039032169 -0.037645318
-0.082268968 -0.039256882 -0.037612844
-0.082673073 -0.039603513 -0.037824094
-0.083170012 -0.039828148 -0.037791625
-0.083666965 -0.040052783 -0.037759162
-0.084163904 -0.040277421 -0.037726697
-0.084660843 -0.040502056 -0.037694234
-0.085251629 -0.040605158 -0.037417985
-0.085279323 -0.041436348 -0.038602822
-0.085587926 -0.041902546 -0.039056193
-0.086177833 -0.042005911 -0.038780969
-0.086673938 -0.042230166 -0.038748559
-0.087358832 -0.042212848 -0.038229961
-0.087855272 -0.042437259 -0.038197529
-0.088541433 -0.042420071 -0.037678208
-0.089038208 -0.042644631 -0.037645753
-0.089344591 -0.043110486 -0.038100231
-0.089650549 -0.043575708 -0.038554098
-0.090146653 -0.043799967 -0.038521692
-0.09064275 -0.044024218 -0.038489278
-0.091138855 -0.044248477 -0.038456868
-0.091730833 -0.044352669 -0.038181346
-0.092035085 -0.0448169 -0.038635004
-0.092531018 -0.045041077 -0.038602609
-0.093026951 -0.045265257 -0.03857021
-0.093522891 -0.045489438 -0.038537808
-0.094018824 -0.045713618 -0.038505409
-0.094514765 -0.045937803 -0.03847301
-0.095010698 -0.046161979 -0.038440611
-0.095506631 -0.04638616 -0.038408216
-0.096002564 -0.046610344 -0.038375814
-0.096498497 -0.046834521 -0.038343415
-0.096896842 -0.047177773 -0.038553916
-0.097392611 -0.047401879 -0.038521532
-0.09788838 -0.047625981 -0.038489144
-0.098286115 -0.047968846 -0.038699523
-0.098781712 -0.048192874 -0.03866715
-0.099277318 -0.048416905 -0.038634773
-0.099772915 -0.048640933 -0.038602393
-0.10026851 -0.048864964 -0.03857002
-0.10066532 -0.049207296 -0.038780302
-0.10116075 -0.049431249 -0.038747936
-0.10155711 -0.049773268 -0.038958088
-0.10205238 -0.049997151 -0.038925737
-0.10254765 -0.050221026 -0.038893379
-0.10314248 -0.050327059 -0.038618471
-0.10363792 -0.050551012 -0.038586106
-0.10413335 -0.050774969 -0.038553737
-0.10472892 -0.050881226 -0.038278624
-0.10522452 -0.051105253 -0.038246248
-0.10572012 -0.051329285 -0.038213871
-0.105914 -0.051905483 -0.038909346
-0.1064091 -0.052129284 -0.038877003
-0.1069042 -0.052353088 -0.038844656
-0.1075003 -0.05245981 -0.038569827
-0.10799557 -0.052683685 -0.038537472
-0.10859224 -0.052790549 -0.038262442
-0.1089861 -0.053131439 -0.03847276
-0.10948136 -0.053355321 -0.038440406
-0.10997663 -0.053579196 -0.038408052
-0.1104719 -0.053803075 -0.038375694
-0.1110694 -0.053910319 -0.038100611
-0.11156484 -0.054134272 -0.03806825
-0.11226563 -0.054125026 -0.037549887
-0.1127614 -0.054349132 -0.037517503
-0.11325717 -0.054573238 -0.037485115
-0.11364972 -0.054913752 -0.037695836
-0.11414532 -0.055137783 -0.03766346
-0.11433066 -0.055710126 -0.038359493
-0.11503286 -0.055701949 -0.037841681
-0.1155283 -0.055925902 -0.03780932
-0.11591981 -0.05626573 -0.038019788
-0.11631106 -0.056605335 -0.038230117
-0.11639013 -0.057290945 -0.039166912
-0.11698862 -0.057399184 -0.038892563
-0.11748322 -0.057622761 -0.03886025
-0.11797782 -0.057846341 -0.038827937
-0.11836785 -0.058184948 -0.039037712
-0.11886228 -0.05840845 -0.03900541
-0.11935671 -0.058631949 -0.038973112
-0.11995621 -0.058740642 -0.038698692
-0.1204508 -0.058964219 -0.038666382
-0.12073467 -0.059417032 -0.039118182
-0.12122893 -0.059640456 -0.039085891
-0.12161761 -0.059978232 -0.039295439
-0.12221746 -0.060087308 -0.039021313
-0.12281772 -0.060196452 -0.038747005
-0.1235247 -0.060191315 -0.038230155
-0.024940802 0.004677434 -0.014160188
-0.025456984 0.0044441009 -0.014126466
-0.026356915 0.0049220896 -0.012783301
-0.027569819 0.0059743198 -0.010380746
-0.021609342 -0.014155259 -0.043901648
-0.021672262 -0.015157452 -0.045311049
-0.022166526 -0.015380877 -0.045278758
-0.02258857 -0.015733566 -0.045486219
-0.023082666 -0.015956914 -0.045453936
-0.023359394 -0.016567079 -0.04614
-0.024070861 -0.016403615 -0.04538938
-0.024564959 -0.016626965 -0.045357101
-0.025059056 -0.016850315 -0.045324825
-0.025553152 -0.017073665 -0.045292545
-0.025827387 -0.017682703 -0.045978766
-0.026467845 -0.017648939 -0.04546766
-0.026814586 -0.018128952 -0.045914277
-0.027381919 -0.018223826 -0.045642659
-0.02780178 -0.018575201 -0.045849785
-0.028369447 -0.018670226 -0.045578144
-0.028788978 -0.01902145 -0.045785289
-0.029431429 -0.018988589 -0.045274053
-0.029925359 -0.019211862 -0.045241784
-0.03041929 -0.019435139 -0.045209516
-0.030913221 -0.019658413 -0.045177247
-0.031407151 -0.019881688 -0.045144979
-0.031901084 -0.020104961 -0.045112714
-0.032244168 -0.020583322 -0.045559566
-0.03266225 -0.020933785 -0.045766652
-0.033231366 -0.021029571 -0.045495074
-0.03372496 -0.021252695 -0.045462824
-0.034294624 -0.021348622 -0.045191057
-0.034864672 -0.021444611 -0.044919103
-0.0353586 -0.021667887 -0.044886839
-0.035852533 -0.021891162 -0.04485457
-0.036269683 -0.022241419 -0.045062028
-0.036840394 -0.02233771 -0.044790033
-0.037411489 -0.022434067 -0.044517849
-0.037982967 -0.022530487 -0.044245489
-0.038399681 -0.022880767 -0.044453293
-0.038893782 -0.023104116 -0.044421013
-0.039387878 -0.023327466 -0.044388738
-0.039881974 -0.023550816 -0.044356458
-0.040297911 -0.023900636 -0.044564154
-0.041105472 -0.023617826 -0.043570962
-0.041600071 -0.023841402 -0.043538652
-0.044243112 -0.020616995 -0.036951076
-0.046118252 -0.018640289 -0.032728728
-0.046620302 -0.018867234 -0.03269593
-0.046795771 -0.019614056 -0.033653423
-0.047297131 -0.019840689 -0.03362067
-0.047798488 -0.020067321 -0.033587918
-0.048381925 -0.02016435 -0.033307813
-0.049048115 -0.020131743 -0.032779813
-0.049384985 -0.020617772 -0.033242282
-0.050134625 -0.020455835 -0.032466345
-0.050636668 -0.02068278 -0.032433543
-0.051138718 -0.020909723 -0.032400746
-0.051724095 -0.021007173 -0.032119852
-0.051975977 -0.021622173 -0.03283086
-0.05247768 -0.021848964 -0.032798085
-0.052812088 -0.02233365 -0.033260383
-0.053229716 -0.022689026 -0.033474926
-0.053730905 -0.022915581 -0.033442184
-0.054232094 -0.023142135 -0.033409439
-0.054733284 -0.023368692 -0.033376697
-0.055065811 -0.023851847 -0.033838131
-0.055566654 -0.024078246 -0.033805408
-0.0560675 -0.024304647 -0.033772688
-0.056483593 -0.024658985 -0.03398684
-0.056984268 -0.02488531 -0.033954129
-0.057484943 -0.025111632 -0.033921421
-0.057985619 -0.025337955 -0.033888713
-0.058486294 -0.025564279 -0.033856004
-0.058901414 -0.025918067 -0.034070048
-0.059401922 -0.026144313 -0.034037355
-0.059902422 -0.026370559 -0.034004655
-0.06031692 -0.026723949 -0.03421858
-0.060817253 -0.026950119 -0.03418589
-0.061231297 -0.027303191 -0.034399677
-0.061645057 -0.027656022 -0.034613319
-0.062058542 -0.028008614 -0.034826815
-0.062385172 -0.028487293 -0.035286002
-0.062971391 -0.028586827 -0.035007525
-0.063471042 -0.028812688 -0.034974884
-0.063970692 -0.029038547 -0.034942243
-0.064470343 -0.029264409 -0.034909599
-0.064969994 -0.02949027 -0.034876958
-0.065382063 -0.029841997 -0.035090219
-0.065969296 -0.029941991 -0.034811672
-0.06638103 -0.030293563 -0.035024956
-0.066880509 -0.030519348 -0.034992326
-0.067203633 -0.030995993 -0.035451088
-0.067526318 -0.031471986 -0.035909224
-0.068025127 -0.031697463 -0.035876639
-0.068523929 -0.03192294 -0.03584405
-0.069289029 -0.031773433 -0.035074998
-0.069610402 -0.032249063 -0.035533547
-0.070198484 -0.032349773 -0.035255436
-0.070608355 -0.03270017 -0.035468355
-0.07110732 -0.032925725 -0.035435751
-0.071606293 -0.033151276 -0.035403155
-0.072105274 -0.033376832 -0.035370559
-0.07251434 -0.033726756 -0.035583362
-0.072923146 -0.034076441 -0.03579602
-0.073331662 -0.034425896 -0.036008533
-0.073739916 -0.034775108 -0.036220904
-0.074238203 -0.035000354 -0.036188349
-0.074646004 -0.035349254 -0.036400586
-0.075144127 -0.035574425 -0.036368046
-0.075823985 -0.035552513 -0.035845716
-0.076231383 -0.035901345 -0.036058139
-0.076638505 -0.036249936 -0.036270421
-0.076954134 -0.036721397 -0.036727067
-0.077269323 -0.037192214 -0.037183098
-0.07767541 -0.03753978 -0.037394635
-0.078172691 -0.037764568 -0.037362147
-0.078669965 -0.037989356 -0.037329663
-0.079259127 -0.038091674 -0.037053104
-0.079756573 -0.03831654 -0.037020609
-0.080254018 -0.038541406 -0.036988109
-0.080659091 -0.038888514 -0.037199713
-0.081063882 -0.039235387 -0.037411176
-0.081560999 -0.039460097 -0.037378699
-0.081965342 -0.03980666 -0.037590031
-0.082462288 -0.040031295 -0.037557565
-0.082959227 -0.04025593 -0.037525102
-0.083456166 -0.040480569 -0.037492633
-0.08395312 -0.040705204 -0.037460171
-0.084356524 -0.041051228 -0.037671402
-0.084759653 -0.041397013 -0.037882488
-0.084975198 -0.041984458 -0.038579714
-0.085377574 -0.042329464 -0.038790207
-0.085967399 -0.042432971 -0.038514894
-0.086463504 -0.04265723 -0.038482483
-0.0869596 -0.042881485 -0.038450073
-0.087550171 -0.04298522 -0.038174547
-0.088330716 -0.042847708 -0.037411772
-0.088827491 -0.043072268 -0.037379313
-0.089038983 -0.043658216 -0.038077287
-0.089440115 -0.044002768 -0.038288023
-0.089936227 -0.044227026 -0.03825561
-0.090241574 -0.044691183 -0.038709067
-0.090737343 -0.044915289 -0.038676679
-0.091233119 -0.045139387 -0.038644291
-0.091728881 -0.045363493 -0.038611904
-0.09222465 -0.045587599 -0.038579512
-0.092720412 -0.045811705 -0.038547128
-0.093312532 -0.04591636 -0.038271822
-0.093808465 -0.046140537 -0.038239427
-0.094207719 -0.04648402 -0.038449962
-0.094703481 -0.046708126 -0.038417574
-0.095199257 -0.046932232 -0.038385186
-0.095792204 -0.047037262 -0.038109828
-0.096288137 -0.047261439 -0.038077429
-0.096686557 -0.047604546 -0.03828802
-0.097084701 -0.047947418 -0.038498472
-0.097482577 -0.048290059 -0.038708784
-0.097978011 -0.048514012 -0.038676418
-0.098473445 -0.048737966 -0.038644049
-0.099067099 -0.048843537 -0.038368966
-0.099562697 -0.049067561 -0.03833659
-0.099959739 -0.049409825 -0.03854695
-0.10035651 -0.049751859 -0.038757171
-0.10075302 -0.050093658 -0.038967252
-0.10124812 -0.050317459 -0.038934909
-0.10174321 -0.050541259 -0.038902566
-0.10223831 -0.050765064 -0.038870219
-0.10263404 -0.051106408 -0.039080188
-0.1033281 -0.051095124 -0.038563043
-0.10382337 -0.051319003 -0.038530685
-0.10431863 -0.051542882 -0.038498335
-0.1048139 -0.051766757 -0.038465977
-0.10510869 -0.052225042 -0.038918521
-0.10550334 -0.052565776 -0.039128408
-0.10599809 -0.052789427 -0.039096083
-0.10649286 -0.053013079 -0.039063763
-0.10698763 -0.05323673 -0.039031442
-0.10778549 -0.053110026 -0.038271848
-0.10828076 -0.053333905 -0.03823949
-0.10877603 -0.05355778 -0.038207136
-0.10916968 -0.053898297 -0.038417399
-0.10966478 -0.054122102 -0.038385056
-0.1099562 -0.05457864 -0.038837504
-0.11045098 -0.054802291 -0.038805183
-0.11115008 -0.054793507 -0.03828802
-0.11164517 -0.055017311 -0.03825568
-0.11214027 -0.055241112 -0.038223334
-0.11284099 -0.055232622 -0.037705433
-0.1134395 -0.055340387 -0.037430029
-0.1139351 -0.055564411 -0.037397653
-0.11422393 -0.056020439 -0.037851226
-0.11461576 -0.056360122 -0.038061611
-0.11511085 -0.056583926 -0.038029268
-0.11539862 -0.057038803 -0.038481958
-0.11568598 -0.057493068 -0.038934037
-0.11618041 -0.057716567 -0.038901735
-0.11667483 -0.05794007 -0.038869433
-0.11727343 -0.058048531 -0.038594984
-0.11776803 -0.058272105 -0.03856267
-0.11815812 -0.058610573 -0.038772535
-0.11844344 -0.059063472 -0.039224111
-0.11893754 -0.059286818 -0.039191835
-0.11974642 -0.059166409 -0.038433425
-0.12024102 -0.059389982 -0.038401112
-0.12063028 -0.059728075 -0.038611032
-0.12101929 -0.060065936 -0.038820803
-0.12161914 -0.060175076 -0.038546428
-0.12211357 -0.060398575 -0.038514126
-0.12271401 -0.060507867 -0.038239554
-0.12331484 -0.060617227 -0.037964799
-0.025139594 0.0074194744 -0.0089492677
-0.024510073 0.0050356369 -0.012869632
-0.024645709 0.0040911152 -0.014144752
-0.025238037 0.0039997539 -0.013849621
-0.026368247 0.0049044862 -0.011717792
-0.027272334 0.0053846408 -0.01036657
-0.021399269 -0.0145816 -0.043636024
-0.021534476 -0.015453574 -0.044805985
-0.021956874 -0.015806356 -0.045013674
-0.022306889 -0.016287934 -0.045460891
-0.02280082 -0.016511207 -0.045428626
-0.023150027 -0.016991988 -0.045875266
-0.023716129 -0.017086478 -0.045603637
-0.02435538 -0.017052302 -0.045092102
-0.024703657 -0.017532878 -0.045539118
-0.025124419 -0.017884485 -0.045746282
-0.025618019 -0.018107608 -0.045714036
-0.026111618 -0.018330734 -0.04568179
-0.026605215 -0.018553859 -0.045649543
-0.027098814 -0.018776983 -0.045617297
-0.027592413 -0.019000107 -0.045585051
-0.02816001 -0.019095276 -0.045313321
-0.028579609 -0.019446358 -0.045520559
-0.029073209 -0.019669481 -0.045488313
-0.029566808 -0.019892607 -0.045456067
-0.030135069 -0.019988073 -0.045184292
-0.030703712 -0.020083604 -0.044912338
-0.031197643 -0.020306882 -0.04488007
-0.031691574 -0.020530155 -0.044847801
-0.032185506 -0.02075343 -0.044815533
-0.032528397 -0.021231353 -0.04526259
-0.033021994 -0.021454478 -0.045230344
-0.033515595 -0.021677602 -0.045198094
-0.034009192 -0.021900726 -0.045165848
-0.034578949 -0.021996871 -0.044893976
-0.03514909 -0.022093078 -0.044621926
-0.035566479 -0.02244327 -0.044829465
-0.035983585 -0.022793224 -0.04503686
-0.036554009 -0.02288967 -0.044764951
-0.037201907 -0.022859402 -0.04425285
-0.037696008 -0.023082752 -0.044220574
-0.0381901 -0.023306103 -0.044188295
-0.0386842 -0.023529451 -0.044156015
-0.039333973 -0.023499595 -0.043643162
-0.039828405 -0.023723098 -0.04361086
-0.040401086 -0.023820017 -0.043338004
-0.040895678 -0.024043592 -0.043305695
-0.041547604 -0.024014056 -0.042791747
-0.044998113 -0.019495577 -0.033729997
-0.045986667 -0.018942269 -0.032211401
-0.046488889 -0.019169288 -0.032178588
-0.046909392 -0.019526355 -0.032393869
-0.047493324 -0.019623332 -0.032112967
-0.047831491 -0.020110041 -0.032576215
-0.048333362 -0.020336907 -0.032543428
-0.04883524 -0.020563772 -0.032510638
-0.049337111 -0.020790638 -0.032477852
-0.049921673 -0.020888016 -0.032197081
-0.050423723 -0.021114958 -0.032164279
-0.050925765 -0.021341901 -0.032131482
-0.051344611 -0.0216981 -0.032346707
-0.051763169 -0.022054058 -0.032561779
-0.052014753 -0.022667354 -0.033271607
-0.052515943 -0.022893909 -0.033238865
-0.052933529 -0.023248972 -0.033453338
-0.053434543 -0.02347545 -0.033420607
-0.053935561 -0.023701927 -0.033387877
-0.05426852 -0.024184691 -0.033849142
-0.054769196 -0.024411013 -0.033816438
-0.055269871 -0.024637336 -0.033783726
-0.055770546 -0.02486366 -0.033751018
-0.056271221 -0.025089985 -0.03371831
-0.056687098 -0.025443932 -0.033932403
-0.057187602 -0.02567018 -0.033899702
-0.057688106 -0.025896424 -0.033867009
-0.058188614 -0.026122671 -0.033834312
-0.058518328 -0.026603289 -0.034294799
-0.059018493 -0.026829381 -0.034262128
-0.059433009 -0.027182374 -0.034475815
-0.060018819 -0.027281566 -0.034196772
-0.060432997 -0.027634403 -0.034410484
-0.060932986 -0.027860418 -0.034377825
-0.06134671 -0.02821294 -0.034591399
-0.061673824 -0.028691478 -0.035050746
-0.062173307 -0.028917262 -0.035018116
-0.062672794 -0.029143047 -0.034985486
-0.063259102 -0.029242806 -0.034706905
-0.063758753 -0.029468667 -0.034674264
-0.064171232 -0.029820399 -0.034887593
-0.064670712 -0.030046184 -0.03485496
-0.065170199 -0.030271966 -0.03482233
-0.065669678 -0.030497752 -0.0347897
-0.066169158 -0.030723536 -0.03475707
-0.066404931 -0.031325273 -0.035461519
-0.066728048 -0.031800881 -0.035919491
-0.067226686 -0.032026283 -0.035886917
-0.067813553 -0.032126851 -0.035609115
-0.068312354 -0.032352325 -0.03557653
-0.068899788 -0.032453042 -0.03529853
-0.069309957 -0.032803278 -0.035511356
-0.069897734 -0.032904148 -0.035233334
-0.07030756 -0.033254236 -0.035446186
-0.070895679 -0.033355255 -0.035168141
-0.071394645 -0.033580806 -0.035135545
-0.071803972 -0.033930663 -0.035348427
-0.072302774 -0.034156144 -0.035315838
-0.07262177 -0.034629665 -0.035773758
-0.072940342 -0.035102546 -0.036231052
-0.073258474 -0.035574783 -0.036687728
-0.073756263 -0.035799801 -0.03665521
-0.074254051 -0.03602482 -0.036622688
-0.074751839 -0.036249835 -0.036590166
-0.075249627 -0.036474854 -0.036557648
-0.075838216 -0.036576763 -0.036280546
-0.076245204 -0.036924887 -0.036492608
-0.076560877 -0.037395574 -0.036948796
-0.07705833 -0.037620436 -0.036916297
-0.077464476 -0.037967857 -0.037127931
-0.077870354 -0.038315039 -0.037339412
-0.078367464 -0.038539752 -0.037306938
-0.078772895 -0.038886629 -0.037518293
-0.079269834 -0.039111264 -0.037485827
-0.079766788 -0.039335899 -0.037453361
-0.080263726 -0.039560534 -0.037420899
-0.080668382 -0.039906945 -0.037632141
-0.08116515 -0.040131506 -0.037599687
-0.081661925 -0.040356066 -0.037567236
-0.082158707 -0.040580627 -0.037534777
-0.082655482 -0.040805187 -0.037502326
-0.083152249 -0.041029748 -0.037469871
-0.083649024 -0.041254308 -0.03743742
-0.084052399 -0.041600026 -0.037648585
-0.08445549 -0.04194551 -0.037859607
-0.084671274 -0.042532202 -0.03855662
-0.085167214 -0.042756382 -0.038524222
-0.085663147 -0.042980563 -0.038491823
-0.086253077 -0.043084294 -0.038216408
-0.086749174 -0.043308549 -0.038183998
-0.087245278 -0.043532807 -0.038151588
-0.087930568 -0.043516368 -0.037632585
-0.088332213 -0.043861087 -0.037843544
-0.088733591 -0.044205572 -0.038054354
-0.089134686 -0.044549827 -0.038265031
-0.089535519 -0.04489385 -0.038475558
-0.090031289 -0.045117956 -0.038443174
-0.090241134 -0.045700639 -0.039138652
-0.090736397 -0.045924518 -0.039106298
-0.091422886 -0.045909725 -0.038588818
-0.092014357 -0.046014372 -0.038313616
-0.092510134 -0.046238478 -0.038281232
-0.093005896 -0.046462584 -0.038248844
-0.093501665 -0.046686687 -0.038216453
-0.093900889 -0.047029871 -0.038426928
-0.094396487 -0.047253903 -0.038394555
-0.094892085 -0.047477927 -0.038362175
-0.095484734 -0.047583111 -0.038086902
-0.095883287 -0.047925986 -0.038297422
-0.096281573 -0.048268635 -0.038507797
-0.096777 -0.048492588 -0.038475432
-0.097174846 -0.048834931 -0.038685676
-0.097572424 -0.049177039 -0.038895782
-0.098067522 -0.04940084 -0.038863439
-0.098758727 -0.049388405 -0.038345966
-0.099254169 -0.049612358 -0.038313601
-0.099749595 -0.049836311 -0.038281236
-0.10014644 -0.0501782 -0.038491547
-0.10054301 -0.050519854 -0.038701717
-0.10093932 -0.050861277 -0.038911745
-0.10133535 -0.051202476 -0.039121628
-0.10183012 -0.051426124 -0.039089307
-0.10232488 -0.051649775 -0.039056983
-0.10281965 -0.051873427 -0.039024662
-0.10351361 -0.051862668 -0.038507652
-0.10410856 -0.051969223 -0.038232703
-0.10430394 -0.052544385 -0.038927693
-0.1047987 -0.052768037 -0.038895372
-0.10509322 -0.053225178 -0.039347172
-0.10558765 -0.053448677 -0.03931487
-0.1061825 -0.053555623 -0.039040569
-0.10677776 -0.053662639 -0.038766082
-0.10727252 -0.053886291 -0.038733762
-0.10796949 -0.053876888 -0.038216554
-0.10846458 -0.054100692 -0.038184207
-0.10895968 -0.054324493 -0.038151864
-0.10925158 -0.054780897 -0.038604468
-0.10964468 -0.055120654 -0.038814388
-0.11013928 -0.055344231 -0.038782079
-0.11063388 -0.055567805 -0.038749762
-0.11102638 -0.055907186 -0.038959563
-0.11162307 -0.056014959 -0.038685143
-0.11211767 -0.056238536 -0.03865283
-0.11312627 -0.055883057 -0.03740735
-0.11372489 -0.055991042 -0.037131846
-0.11422049 -0.056215074 -0.037099473
-0.11440575 -0.056786321 -0.037796076
-0.11469398 -0.057241064 -0.038248923
-0.11498183 -0.057695191 -0.038701158
-0.11547626 -0.05791869 -0.038668856
-0.115867 -0.058257163 -0.038878612
-0.11636126 -0.058480587 -0.038846321
-0.11695955 -0.05858919 -0.038571957
-0.11755823 -0.058697872 -0.0382974
-0.11784405 -0.059150863 -0.038749453
-0.11812948 -0.059603248 -0.039200895
-0.11841453 -0.060055021 -0.039651729
-0.11911734 -0.060049798 -0.039136361
-0.11971615 -0.060158856 -0.038862273
-0.12042056 -0.060153697 -0.038345851
-0.12080963 -0.060491417 -0.038555715
-0.1213039 -0.060714841 -0.038523424
-0.12190385 -0.060824201 -0.038248949
-0.12250421 -0.060933631 -0.037974291
-0.12310497 -0.061043136 -0.037699439
-0.024001991 0.0052520689 -0.011838395
-0.024062669 0.0041640704 -0.013378541
-0.024502909 0.0037887399 -0.013606499
-0.025095396 0.00369724 -0.013311074
-0.026148684 0.0044588842 -0.011440165
-0.026666321 0.0042248927 -0.011406349
-0.027570935 0.0047038458 -0.010054578
-0.020973729 -0.015396858 -0.04409251
-0.021252962 -0.016008411 -0.044780873
-0.021603446 -0.01648985 -0.045228254
-0.022097377 -0.016713127 -0.045195986
-0.022519162 -0.017065128 -0.045403328
-0.022868441 -0.017545372 -0.045849837
-0.023361873 -0.01776842 -0.045817599
-0.024000455 -0.017734729 -0.045306556
-0.02449422 -0.017957928 -0.045274299
-0.024915053 -0.01830939 -0.045481548
-0.025335604 -0.01866062 -0.045688659
-0.025755871 -0.019011611 -0.045895629
-0.026322467 -0.019106718 -0.045624189
-0.026963042 -0.019073926 -0.045113016
-0.027456807 -0.019297125 -0.045080759
-0.028024549 -0.019392423 -0.044808764
-0.028370241 -0.019871263 -0.045255825
-0.02886384 -0.020094387 -0.045223579
-0.029357439 -0.020317512 -0.045191333
-0.029925631 -0.020413125 -0.044919472
-0.030569063 -0.020381188 -0.044407479
-0.030988134 -0.020732073 -0.044615157
-0.031632502 -0.020700343 -0.044102788
-0.032051358 -0.021051237 -0.044310637
-0.032469928 -0.021401897 -0.044518352
-0.032963861 -0.021625172 -0.044486087
-0.03338198 -0.021975521 -0.044693671
-0.033875749 -0.022198722 -0.044661414
-0.03436951 -0.022421921 -0.044629157
-0.034863278 -0.02264512 -0.044596899
-0.035127934 -0.023248127 -0.045283362
-0.0356212 -0.0234711 -0.045251142
-0.036267817 -0.023441255 -0.044739883
-0.03699233 -0.023284739 -0.043987852
-0.037486427 -0.023508089 -0.043955576
-0.037980523 -0.023731438 -0.043923292
-0.038629822 -0.02370172 -0.043410283
-0.039279994 -0.023671959 -0.04289658
-0.039774761 -0.02389561 -0.042864259
-0.040269524 -0.024119262 -0.042831931
-0.040764287 -0.024342913 -0.042799611
-0.042841572 -0.022021115 -0.037916411
-0.044785522 -0.019927017 -0.033461194
-0.045773644 -0.019374596 -0.031942043
-0.046275865 -0.019601615 -0.031909235
-0.046778079 -0.019828638 -0.031876422
-0.0472803 -0.020055659 -0.031843614
-0.047618609 -0.020542072 -0.03230704
-0.048120484 -0.020768939 -0.032274254
-0.048622359 -0.020995803 -0.032241467
-0.049124233 -0.02122267 -0.032208685
-0.049543552 -0.021578789 -0.032423805
-0.050045256 -0.021805577 -0.03239103
-0.050546959 -0.022032363 -0.032358255
-0.051048659 -0.022259153 -0.032325476
-0.051300976 -0.022872239 -0.033035547
-0.05171898 -0.023227308 -0.03325009
-0.052219994 -0.023453787 -0.033217363
-0.05263754 -0.023808535 -0.033431772
-0.053138386 -0.024034934 -0.033399053
-0.053555474 -0.024389364 -0.033613328
-0.053972278 -0.024743553 -0.033827454
-0.054556828 -0.024842013 -0.033547908
-0.054973289 -0.025196046 -0.03376206
-0.055473793 -0.02542229 -0.033729363
-0.0558898 -0.025776004 -0.033943377
-0.056305524 -0.026129479 -0.03415725
-0.056720965 -0.026482711 -0.03437097
-0.057220958 -0.026708726 -0.03433831
-0.057720952 -0.026934739 -0.034305643
-0.058220945 -0.027160754 -0.03427298
-0.058465071 -0.027766747 -0.034978643
-0.059220929 -0.027612785 -0.034207653
-0.059720922 -0.0278388 -0.034174986
-0.060220912 -0.028064815 -0.034142323
-0.060634881 -0.028417267 -0.034355979
-0.06104856 -0.02876948 -0.034569491
-0.061461959 -0.029121451 -0.034782857
-0.061702535 -0.029724823 -0.035487279
-0.062374394 -0.029698892 -0.034963459
-0.062960409 -0.029798804 -0.034684967
-0.063459888 -0.030024588 -0.034652337
-0.063959368 -0.030250371 -0.034619704
-0.064371645 -0.030601719 -0.03483298
-0.064870946 -0.030827427 -0.034800362
-0.065370262 -0.031053133 -0.034767743
-0.065694302 -0.031529251 -0.035226498
-0.065930322 -0.032129556 -0.035929747
-0.066428781 -0.032354876 -0.035897188
-0.067015186 -0.032455519 -0.035619482
-0.067601971 -0.032556236 -0.035341591
-0.06810078 -0.032781713 -0.035309006
-0.068599582 -0.03300719 -0.03527642
-0.068921097 -0.033481494 -0.035734363
-0.069419563 -0.033706818 -0.0357018
-0.069918022 -0.033932142 -0.035669234
-0.070594788 -0.033909101 -0.035146076
-0.071093589 -0.034134574 -0.035113487
-0.071592391 -0.034360051 -0.035080902
-0.072001502 -0.034709524 -0.035293732
-0.072410338 -0.035058763 -0.035506416
-0.072549544 -0.035778277 -0.036453269
-0.072867736 -0.036249738 -0.036909483
-0.073365182 -0.0364746 -0.036876988
-0.073862635 -0.036699466 -0.036844488
-0.074360088 -0.036924332 -0.036811989
-0.074857526 -0.037149198 -0.036779493
-0.075354978 -0.037374061 -0.036746994
-0.075852424 -0.037598927 -0.036714498
-0.076258987 -0.037946355 -0.036926195
-0.076756269 -0.038171142 -0.036893707
-0.077162385 -0.038518261 -0.037105273
-0.077568226 -0.038865138 -0.037316695
-0.078065172 -0.039089777 -0.037284229
-0.078562111 -0.039314412 -0.037251767
-0.07896734 -0.039660905 -0.037463065
-0.079464108 -0.039885465 -0.037430614
-0.07996089 -0.040110026 -0.03739816
-0.080457665 -0.040334586 -0.037365705
-0.08095444 -0.040559147 -0.037333254
-0.081266291 -0.041026413 -0.037787944
-0.081762724 -0.041250821 -0.037755512
-0.082259163 -0.041475229 -0.037723079
-0.08275561 -0.041699637 -0.037690647
-0.083252043 -0.041924044 -0.037658215
-0.083748482 -0.042148452 -0.037625786
-0.084244922 -0.042372864 -0.037593354
-0.084460914 -0.04295912 -0.038290635
-0.084956847 -0.043183301 -0.038258236
-0.085546538 -0.043287098 -0.037982743
-0.086042643 -0.043511357 -0.037950333
-0.086350635 -0.043975994 -0.038403992
-0.086846396 -0.0442001 -0.038371604
-0.087436527 -0.044304203 -0.038096242
-0.088027053 -0.044408381 -0.037820689
-0.088523157 -0.044632636 -0.037788279
-0.088829465 -0.04509652 -0.03824205
-0.089230269 -0.045440238 -0.038452517
-0.089440852 -0.0460224 -0.039147753
-0.089745924 -0.046484403 -0.039599691
-0.090240687 -0.046708055 -0.039567363
-0.09102159 -0.046574738 -0.038808316
-0.091612525 -0.046679538 -0.038533378
-0.092203863 -0.046784412 -0.038258255
-0.092603393 -0.047127444 -0.038468648
-0.093098827 -0.047351398 -0.038436279
-0.093690664 -0.047456499 -0.038161125
-0.094186261 -0.047680531 -0.038128745
-0.094681866 -0.047904558 -0.038096372
-0.095080562 -0.048247214 -0.038306817
-0.095382027 -0.048708025 -0.038759619
-0.095877126 -0.04893183 -0.03872728
-0.096372224 -0.04915563 -0.038694933
-0.096867323 -0.049379438 -0.03866259
-0.09716738 -0.049839173 -0.039114852
-0.097662151 -0.050062824 -0.039082527
-0.098548584 -0.049814887 -0.038080253
-0.099044017 -0.050038844 -0.038047887
-0.099441096 -0.050380662 -0.038258273
-0.099837907 -0.050722249 -0.038468525
-0.10023445 -0.051063605 -0.038678631
-0.10063073 -0.051404733 -0.038888596
-0.10102674 -0.051745627 -0.039098416
-0.10152134 -0.051969208 -0.039066106
-0.10211502 -0.052075688 -0.038791627
-0.10260978 -0.052299339 -0.038759302
-0.10310455 -0.052522991 -0.038726982
-0.10359931 -0.052746642 -0.038694661
-0.10399432 -0.053087085 -0.038904548
-0.10448892 -0.053310663 -0.038872235
-0.1048835 -0.053650804 -0.039081994
-0.10537793 -0.053874303 -0.039049689
-0.10587236 -0.054097801 -0.03901739
-0.10646731 -0.054204967 -0.038742989
-0.10706266 -0.054312203 -0.038468402
-0.10775948 -0.054303087 -0.037951015
-0.10805219 -0.054759502 -0.038403757
-0.1084457 -0.055099271 -0.038613744
-0.10863644 -0.055670492 -0.039307412
-0.10913053 -0.055893842 -0.039275132
-0.10962462 -0.056117192 -0.039242852
-0.11011873 -0.056340542 -0.039210577
-0.11061282 -0.056563891 -0.039178297
-0.11110692 -0.056787241 -0.039146014
-0.11180553 -0.056779809 -0.038629785
-0.11240248 -0.05688788 -0.03835525
-0.11341156 -0.056533497 -0.037109267
-0.11370065 -0.056988716 -0.037562884
-0.11398936 -0.057443321 -0.038015887
-0.11427767 -0.057897311 -0.038468279
-0.11446246 -0.058465514 -0.039161861
-0.1150597 -0.058574043 -0.038887784
-0.1155538 -0.058797393 -0.038855508
-0.11615161 -0.058906067 -0.038581233
-0.11674982 -0.059014816 -0.038306776
-0.11724426 -0.059238315 -0.038274474
-0.11753019 -0.059690792 -0.038726389
-0.11791997 -0.060028438 -0.038935985
-0.11820515 -0.060479928 -0.039386999
-0.11890784 -0.060474992 -0.038871448
-0.11950658 -0.060584195 -0.038597275
-0.12010572 -0.060693469 -0.038322914
-0.12059999 -0.060916897 -0.038290627
-0.12109425 -0.061140321 -0.038258336
-0.12148296 -0.061477594 -0.03846816
-0.12218856 -0.061473325 -0.037951469
-0.12289511 -0.061469048 -0.037434082
-0.024179097 0.0067597018 -0.0084258001
-0.023782503 0.0048066243 -0.011560867
-0.023843644 0.0037195669 -0.0131016
-0.02428396 0.0033443929 -0.013329654
-0.02510538 0.0036783663 -0.012247625
-0.025698915 0.0035866988 -0.011951304
-0.026446756 0.0037792909 -0.011128723
-0.020692211 -0.015952086 -0.044067618
-0.020756897 -0.016949303 -0.04547479
-0.021250496 -0.017172426 -0.045442544
-0.021744095 -0.017395552 -0.045410294
-0.022237692 -0.017618675 -0.045378048
-0.022587044 -0.018098386 -0.045824423
-0.023080312 -0.01832136 -0.045792203
-0.023791015 -0.018159777 -0.045041736
-0.02428478 -0.018382976 -0.045009479
-0.024705684 -0.018734299 -0.045216817
-0.025126304 -0.019085385 -0.045424018
-0.025546642 -0.019436231 -0.045631077
-0.02603991 -0.019659206 -0.045598853
-0.026606603 -0.019754533 -0.045327313
-0.0273949 -0.019466422 -0.044336151
-0.027888998 -0.019689774 -0.044303872
-0.028160874 -0.020296169 -0.044991091
-0.028580332 -0.02064673 -0.04519837
-0.029148072 -0.020742418 -0.044926602
-0.02971619 -0.020838173 -0.044654649
-0.030359484 -0.020806525 -0.044142473
-0.03070372 -0.021284573 -0.044590134
-0.03142285 -0.021125821 -0.043837696
-0.031917114 -0.021349248 -0.043805409
-0.032411378 -0.021572672 -0.043773118
-0.03282997 -0.021923274 -0.043981083
-0.033248279 -0.022273639 -0.044188909
-0.033666309 -0.02262377 -0.04439659
-0.034084052 -0.022973666 -0.044604138
-0.034501523 -0.023323324 -0.044811543
-0.03484251 -0.023799036 -0.04525815
-0.035335608 -0.024021937 -0.045225937
-0.036058448 -0.023866164 -0.044475149
-0.036782749 -0.023710074 -0.043722849
-0.037276849 -0.023933424 -0.04369057
-0.038003113 -0.023777246 -0.042936716
-0.03857537 -0.023874218 -0.042663544
-0.039225943 -0.023844555 -0.042148992
-0.039721042 -0.024068356 -0.042116646
-0.040294461 -0.024165524 -0.041842919
-0.042132162 -0.022224747 -0.037681796
-0.043509074 -0.021036733 -0.034952074
-0.044572938 -0.020358458 -0.033192389
-0.04523607 -0.020326003 -0.032664672
-0.046062838 -0.020033943 -0.031639878
-0.046565056 -0.020260965 -0.031607069
-0.046985537 -0.020617656 -0.031822544
-0.047242194 -0.021232847 -0.032533616
-0.047825638 -0.021330306 -0.032253053
-0.048245255 -0.021686267 -0.032468088
-0.048746787 -0.021912977 -0.03243532
-0.049165946 -0.022268618 -0.032650217
-0.04966731 -0.022495251 -0.032617465
-0.05008601 -0.022850569 -0.032832228
-0.0505872 -0.023077123 -0.032799486
-0.050922558 -0.023560477 -0.03326131
-0.051340405 -0.023915069 -0.03347563
-0.051924251 -0.024013281 -0.033195868
-0.052425098 -0.024239682 -0.033163153
-0.052842431 -0.024594041 -0.033377506
-0.053259477 -0.024948157 -0.033591717
-0.053759985 -0.025174404 -0.033559017
-0.054260485 -0.02540065 -0.03352632
-0.054760989 -0.025626896 -0.033493623
-0.055177242 -0.025980541 -0.033707719
-0.055593207 -0.026333945 -0.03392167
-0.055840109 -0.026940987 -0.034627929
-0.056339756 -0.027166847 -0.034595288
-0.056924116 -0.027265966 -0.034316484
-0.057254244 -0.02774515 -0.034776017
-0.057753727 -0.027970934 -0.034743384
-0.058253206 -0.028196719 -0.034710754
-0.05875269 -0.028422503 -0.034678124
-0.059423227 -0.028395655 -0.034153216
-0.059923045 -0.028621593 -0.034120563
-0.06033697 -0.028973736 -0.034334157
-0.060750619 -0.029325638 -0.034547601
-0.060991913 -0.0299288 -0.035252262
-0.061404768 -0.030279899 -0.035465103
-0.061989855 -0.030379908 -0.035187066
-0.062488832 -0.030605463 -0.035154469
-0.063248023 -0.030454557 -0.034384448
-0.063573621 -0.030931246 -0.034843624
-0.064072773 -0.031156875 -0.034811012
-0.06457191 -0.031382505 -0.034778405
-0.064983688 -0.03173323 -0.03499148
-0.065220423 -0.032333326 -0.035694972
-0.065718889 -0.032558646 -0.035662405
-0.066217355 -0.03278397 -0.035629846
-0.066803671 -0.032884762 -0.035352051
-0.067302309 -0.033110164 -0.035319477
-0.067800939 -0.033335563 -0.0352869
-0.068211205 -0.033685263 -0.035499588
-0.068709671 -0.033910587 -0.035467021
-0.069119483 -0.034259979 -0.035679575
-0.069529019 -0.034609128 -0.035891987
-0.070116073 -0.034710471 -0.035614472
-0.070703521 -0.03481188 -0.035336766
-0.07120198 -0.035037208 -0.035304204
-0.071700446 -0.035262533 -0.035271637
-0.071840614 -0.035981774 -0.036218811
-0.072248816 -0.036329981 -0.036430821
-0.072656728 -0.03667796 -0.036642686
-0.073064379 -0.037025701 -0.036854409
-0.073561653 -0.037250489 -0.036821924
-0.074058935 -0.037475277 -0.036789436
-0.074465968 -0.037822627 -0.037001036
-0.074963078 -0.03804734 -0.036968559
-0.075460188 -0.038272053 -0.036936086
-0.075957298 -0.038496766 -0.036903609
-0.076454416 -0.038721476 -0.036871132
-0.076860495 -0.039068285 -0.037082635
-0.077357434 -0.039292928 -0.037050173
-0.07785438 -0.039517563 -0.037017703
-0.078259848 -0.039863989 -0.037229083
-0.078756623 -0.040088546 -0.037196632
-0.079161651 -0.040434659 -0.037407879
-0.079658255 -0.040659145 -0.037375435
-0.080154859 -0.040883631 -0.037342995
-0.080559283 -0.041229356 -0.037554119
-0.080871187 -0.041695852 -0.038008355
-0.081367284 -0.041920111 -0.037975945
-0.081955962 -0.042023513 -0.037700266
-0.08245223 -0.042247843 -0.037667844
-0.082948498 -0.04247218 -0.037635423
-0.083444774 -0.04269651 -0.037603002
-0.083941042 -0.042920846 -0.037570581
-0.084530786 -0.043024626 -0.037294667
-0.084840007 -0.043489907 -0.037749078
-0.085336104 -0.043714162 -0.037716668
-0.085738368 -0.04405858 -0.037927452
-0.086140342 -0.044402767 -0.038138095
-0.086636111 -0.044626873 -0.038105708
-0.087131873 -0.044850975 -0.03807332
-0.0877221 -0.044955302 -0.037797857
-0.088123411 -0.045299187 -0.038008545
-0.088524453 -0.045642838 -0.038219091
-0.088735752 -0.046224792 -0.038914561
-0.088946618 -0.046805572 -0.039608628
-0.089441217 -0.047029149 -0.039576314
-0.089935817 -0.047252722 -0.039544001
-0.09052559 -0.047357615 -0.039269682
-0.091115758 -0.047462579 -0.03899518
-0.091706336 -0.04756761 -0.038720496
-0.092105627 -0.047910031 -0.038930517
-0.092696533 -0.048015215 -0.038655806
-0.093384109 -0.048001837 -0.0381382
-0.093879551 -0.04822579 -0.038105831
-0.094374977 -0.048449744 -0.038073465
-0.094773635 -0.048792101 -0.038283847
-0.094978459 -0.049370479 -0.038978782
-0.09537638 -0.049712058 -0.039188575
-0.095870979 -0.049935635 -0.039156266
-0.096365578 -0.050159212 -0.039123952
-0.09695752 -0.050265085 -0.038849495
-0.097452283 -0.050488736 -0.038817175
-0.097947054 -0.050712388 -0.038784847
-0.098441809 -0.05093604 -0.038752526
-0.09893658 -0.051159687 -0.038720202
-0.099431343 -0.051383339 -0.038687881
-0.099827759 -0.051724244 -0.038897771
-0.1002239 -0.052064918 -0.03910752
-0.10071833 -0.052288417 -0.039075218
-0.10121276 -0.052511919 -0.03904292
-0.10180614 -0.052618548 -0.038768522
-0.10239992 -0.052725252 -0.038493946
-0.10269605 -0.053182423 -0.038946018
-0.10319048 -0.053405922 -0.038913716
-0.10368492 -0.053629421 -0.038881417
-0.10417935 -0.053852923 -0.038849112
-0.10467377 -0.054076422 -0.038816813
-0.10516821 -0.054299925 -0.038784515
-0.10566264 -0.054523427 -0.038752213
-0.10615706 -0.054746926 -0.038719915
-0.10675211 -0.054854307 -0.038445409
-0.10724671 -0.055077884 -0.038413096
-0.10764036 -0.055417426 -0.038623009
-0.10793275 -0.055872478 -0.039074689
-0.10832577 -0.056211412 -0.03928417
-0.10881971 -0.056434684 -0.039251901
-0.10921229 -0.056773316 -0.039461248
-0.10990915 -0.056765877 -0.038945571
-0.11040325 -0.056989226 -0.038913295
-0.11089734 -0.057212576 -0.038881015
-0.1115958 -0.057205431 -0.038364604
-0.11219268 -0.057313643 -0.038089979
-0.11278997 -0.05742193 -0.037815176
-0.11328474 -0.057645582 -0.037782852
-0.11357352 -0.058099434 -0.0382354
-0.11375902 -0.058667436 -0.038929217
-0.11425295 -0.058890708 -0.038896948
-0.11474688 -0.059113983 -0.03886468
-0.11534422 -0.059222728 -0.038590502
-0.11583832 -0.059446078 -0.038558226
-0.11643623 -0.059554972 -0.038283855
-0.11693049 -0.059778396 -0.038251564
-0.11721653 -0.060230359 -0.038703341
-0.11771046 -0.060453631 -0.038671073
-0.11820439 -0.060676906 -0.038638804
-0.11880291 -0.06078618 -0.038364552
-0.119297 -0.06100953 -0.038332276
-0.11947659 -0.061574206 -0.039025523
-0.11986532 -0.061910883 -0.039234806
-0.1202538 -0.062247325 -0.039443951
-0.12074706 -0.062470302 -0.039411724
-0.12176748 -0.062126279 -0.038170878
-0.023958676 0.0063123638 -0.0081470916
-0.023487089 0.0042188126 -0.01154631
-0.023624621 0.0032750636 -0.012824657
-0.024140984 0.0030416483 -0.012790924
-0.024809811 0.0030915732 -0.012232842
-0.025403034 0.0029997311 -0.011936621
-0.025996674 0.002907824 -0.011640191
-0.020625636 -0.016119413 -0.043321077
-0.020905316 -0.016730443 -0.044010449
-0.021041129 -0.017597334 -0.04517781
-0.021534726 -0.017820457 -0.04514556
-0.022028323 -0.018043583 -0.045113314
-0.022377817 -0.018523006 -0.045559872
-0.022871085 -0.018745981 -0.045527644
-0.023726638 -0.018328311 -0.044297103
-0.024293508 -0.018423345 -0.044024665
-0.024569107 -0.019031225 -0.044712398
-0.024917008 -0.019510146 -0.045159373
-0.025337415 -0.019860853 -0.045366522
-0.025830682 -0.020083828 -0.045334298
-0.026250644 -0.020434223 -0.045541316
-0.027185319 -0.019891759 -0.044071153
-0.027679419 -0.020115111 -0.044038873
-0.028025459 -0.020593625 -0.044486597
-0.028445104 -0.0209442 -0.044694114
-0.029161708 -0.02078516 -0.043942034
-0.029581254 -0.021135908 -0.044149872
-0.030149905 -0.02123186 -0.043877475
-0.030494282 -0.021709621 -0.044325314
-0.031063048 -0.021805733 -0.04405307
-0.031556979 -0.022029009 -0.044020802
-0.032050911 -0.022252284 -0.043988533
-0.032620393 -0.022348611 -0.043716084
-0.033114485 -0.02257196 -0.043683805
-0.033608586 -0.02279531 -0.043651525
-0.033874687 -0.023398571 -0.044339404
-0.034216214 -0.023874393 -0.044786479
-0.034709476 -0.024097368 -0.044754252
-0.035202745 -0.024320344 -0.044722032
-0.036079071 -0.023912059 -0.04349013
-0.036650106 -0.02400898 -0.043217417
-0.037375979 -0.023852825 -0.04246283
-0.037948221 -0.023949854 -0.042189408
-0.038520843 -0.02404695 -0.041915797
-0.039093856 -0.024144109 -0.041642003
-0.040294234 -0.023225034 -0.039429139
-0.042297013 -0.021015113 -0.03474924
-0.042876977 -0.021112202 -0.034470294
-0.043859161 -0.020563344 -0.032956328
-0.044521805 -0.020531029 -0.032428451
-0.045104317 -0.020628249 -0.032147851
-0.045768492 -0.020595949 -0.031618878
-0.046270542 -0.020822892 -0.031586077
-0.046772588 -0.021049835 -0.03155328
-0.047029462 -0.021664582 -0.032264624
-0.04753099 -0.021891292 -0.03223186
-0.047868669 -0.022375789 -0.032694392
-0.048287842 -0.022731025 -0.032909054
-0.04878886 -0.022957504 -0.032876324
-0.049289878 -0.023183981 -0.032843594
-0.049790893 -0.02341046 -0.032810859
-0.050209269 -0.023765223 -0.03302541
-0.050544657 -0.024247779 -0.033486769
-0.051045161 -0.024474023 -0.033454068
-0.051628709 -0.024572391 -0.033174396
-0.052129384 -0.024798715 -0.033141684
-0.052463349 -0.025280399 -0.033602808
-0.052963682 -0.025506569 -0.033570122
-0.053547684 -0.025605256 -0.03329058
-0.054048188 -0.025831502 -0.033257887
-0.054548696 -0.026057748 -0.033225186
-0.054965016 -0.026411245 -0.033439372
-0.055296816 -0.026891502 -0.033899978
-0.055543933 -0.027497768 -0.034606017
-0.056043416 -0.027723553 -0.034573387
-0.056627471 -0.027822826 -0.034294669
-0.057042383 -0.028175121 -0.034508128
-0.057541862 -0.028400905 -0.034475498
-0.058041345 -0.02862669 -0.034442868
-0.058540825 -0.028852472 -0.034410235
-0.059040304 -0.029078256 -0.034377605
-0.059625383 -0.029177992 -0.034098815
-0.059867911 -0.029781511 -0.034804177
-0.060109947 -0.030383801 -0.035508096
-0.060694393 -0.03048381 -0.035230167
-0.061193194 -0.030709285 -0.035197582
-0.061691996 -0.030934762 -0.035164993
-0.062190801 -0.031160241 -0.035132408
-0.062776156 -0.031260546 -0.034854256
-0.063275129 -0.031486101 -0.034821659
-0.063774094 -0.031711653 -0.034789063
-0.064186014 -0.032062151 -0.035002064
-0.064597644 -0.032412402 -0.03521492
-0.065008998 -0.032762416 -0.03542763
-0.065507457 -0.032987744 -0.035395063
-0.066005923 -0.033213068 -0.035362504
-0.066504382 -0.033438388 -0.035329938
-0.067002848 -0.033663712 -0.035297375
-0.067501314 -0.033889037 -0.035264809
-0.067823358 -0.03436242 -0.035722449
-0.068233192 -0.034711417 -0.035934772
-0.06864275 -0.035060178 -0.036146954
-0.069229104 -0.035161607 -0.035869714
-0.069815859 -0.035263103 -0.035592284
-0.070313983 -0.035488274 -0.035559744
-0.070812106 -0.035713445 -0.0355272
-0.071131684 -0.036185268 -0.035984352
-0.071540125 -0.036533408 -0.03619644
-0.071948282 -0.036881313 -0.036408387
-0.072356164 -0.037228987 -0.036620189
-0.072763771 -0.037576418 -0.036831848
-0.073260888 -0.037801132 -0.036799371
-0.073757999 -0.038025845 -0.036766894
-0.074164994 -0.038372889 -0.036978431
-0.074661933 -0.038597532 -0.036945969
-0.075249329 -0.038699981 -0.036669467
-0.075655825 -0.039046802 -0.036881037
-0.075971365 -0.039515249 -0.037336189
-0.076467969 -0.039739735 -0.037303749
-0.07696458 -0.039964218 -0.037271306
-0.077643596 -0.039945345 -0.036751177
-0.078049131 -0.040291626 -0.036962651
-0.078545906 -0.040516187 -0.036930196
-0.079042681 -0.040740751 -0.036897741
-0.079447612 -0.04108664 -0.037109088
-0.079944223 -0.041311122 -0.037076648
-0.080164649 -0.04189866 -0.037774689
-0.080568649 -0.042243689 -0.037985459
-0.08115685 -0.04234717 -0.037709869
-0.081745461 -0.042450722 -0.037434097
-0.082241729 -0.042675052 -0.037401676
-0.082737997 -0.042899389 -0.037369255
-0.083141267 -0.043244198 -0.037580229
-0.083637364 -0.043468453 -0.037547819
-0.084226817 -0.043572385 -0.037271991
-0.084723085 -0.043796714 -0.03723957
-0.085219353 -0.044021048 -0.037207149
-0.085434288 -0.044605434 -0.03790459
-0.085742481 -0.04506902 -0.038357977
-0.086144052 -0.045412518 -0.038568262
-0.086733349 -0.045516931 -0.038293239
-0.08732304 -0.04562141 -0.03801804
