# .PCD v0.7 - Point Cloud Data file format
VERSION 0.7
FIELDS x y z
SIZE 4 4 4
TYPE F F F
COUNT 1 1 1
WIDTH 1279
HEIGHT 1
VIEWPOINT 0 0 0 1 0 0 0
POINTS 1279
DATA ascii
-0.11908747 0.015307201 -0.010779183
-0.12108413 0.020966284 -0.018795202
-0.12090168 0.022059856 -0.020008776
-0.12032734 0.022335563 -0.020002864
-0.119753 0.022611273 -0.019996954
-0.1190799 0.022683196 -0.019686524
-0.11850534 0.022959011 -0.01968061
-0.11763263 0.022623157 -0.018759675
-0.11695761 0.022695199 -0.018448263
-0.11638214 0.022971455 -0.018442338
-0.11580665 0.023247709 -0.018436417
-0.11503004 0.023115927 -0.017818766
-0.1144541 0.023392403 -0.017812837
-0.11397924 0.023872757 -0.0181129
-0.11350475 0.024352729 -0.018412724
-0.11292927 0.024628984 -0.018406801
-0.11235379 0.024905238 -0.018400878
-0.11167641 0.024978217 -0.018089198
-0.11099849 0.025051251 -0.01777727
-0.11021743 0.024920797 -0.017158601
-0.10964104 0.025197491 -0.017152671
-0.10875498 0.024863241 -0.016225785
-0.10786679 0.024528192 -0.015296685
-0.1067677 0.023782719 -0.013747208
-0.1059792 0.023650574 -0.013122106
-0.11987057 0.015438951 -0.010331013
-0.12185916 0.021096675 -0.018351655
-0.12167548 0.022190038 -0.019565932
-0.12110114 0.022465749 -0.019560022
-0.12062496 0.022945138 -0.019858561
-0.12005085 0.023220735 -0.019852651
-0.11927944 0.023089247 -0.019237591
-0.11870487 0.023365064 -0.019231679
-0.11803109 0.023437314 -0.01892082
-0.11725716 0.023305837 -0.018304288
-0.11668191 0.023581984 -0.018298369
-0.11600652 0.023654405 -0.017986771
-0.11533059 0.023726884 -0.017674927
-0.11465412 0.023799421 -0.017362835
-0.11417918 0.024279613 -0.017663075
-0.11370461 0.024759427 -0.017963078
-0.11312912 0.025035681 -0.017957155
-0.11255365 0.025311938 -0.017951231
-0.11187635 0.025385074 -0.017639374
-0.110994 0.025051445 -0.016714174
-0.11041761 0.025328141 -0.016708242
-0.10984122 0.025604835 -0.016702309
-0.10916176 0.025678206 -0.016389458
-0.10837831 0.025548095 -0.015768947
-0.10728156 0.024805548 -0.014222267
-0.10628517 0.024264978 -0.012979281
-0.10560103 0.024338165 -0.012663442
-0.12194971 0.019790264 -0.015762197
-0.12225427 0.02191204 -0.018513124
-0.12187494 0.022595931 -0.019117178
-0.12130061 0.02287164 -0.019111266
-0.12082434 0.023350868 -0.019409982
-0.12025024 0.023626467 -0.019404074
-0.11967613 0.023902066 -0.019398164
-0.11890442 0.023771115 -0.018782746
-0.11823072 0.023843525 -0.01847171
-0.11745694 0.023712374 -0.017854823
-0.11688169 0.023988519 -0.017848901
-0.11590572 0.023449443 -0.016618103
-0.11532955 0.023726029 -0.016612174
-0.11475339 0.024002613 -0.016606243
-0.11437912 0.024686472 -0.017213251
-0.11390446 0.025166122 -0.017513433
-0.11332899 0.025442377 -0.017507508
-0.11275351 0.025718633 -0.017501587
-0.11177058 0.025182094 -0.016269747
-0.11119419 0.02545879 -0.016263815
-0.11030997 0.025124852 -0.015335868
-0.10993864 0.025808906 -0.015944853
-0.1091558 0.025678901 -0.015323989
-0.10857873 0.025955925 -0.015318048
-0.10800164 0.02623295 -0.015312109
-0.10690413 0.02549177 -0.013764517
-0.1061167 0.025361147 -0.013140177
-0.10543304 0.025434714 -0.012824655
-0.12244362 0.020814195 -0.016233154
-0.12255136 0.022522265 -0.018369295
-0.12207441 0.023001822 -0.018668424
-0.12150007 0.023277529 -0.018662512
-0.12092573 0.023553237 -0.0186566
-0.12054776 0.024235286 -0.019260066
-0.12017039 0.024916258 -0.019862572
-0.1193014 0.024583396 -0.01894368
-0.11843034 0.024249738 -0.018022601
-0.11765672 0.024118908 -0.017405355
-0.11618081 0.022557624 -0.014636384
-0.11570413 0.023039456 -0.014938427
-0.11522781 0.023520906 -0.015240231
-0.11465096 0.023797821 -0.015234293
-0.11437732 0.024686379 -0.016150132
-0.11390229 0.025166411 -0.016450973
-0.11342765 0.025646061 -0.016751576
-0.11254715 0.025312744 -0.015825318
-0.11135762 0.024366364 -0.013972106
-0.11057436 0.024234947 -0.013348429
-0.10958323 0.023693467 -0.012104047
-0.10910765 0.024176385 -0.012408067
-0.10914984 0.025679598 -0.014256822
-0.10877915 0.026363757 -0.01486715
-0.10830559 0.026843883 -0.015168982
-0.10772873 0.027120799 -0.015163045
-0.10694383 0.026991786 -0.01454131
-0.10573898 0.026047917 -0.012682064
-0.10505517 0.026121756 -0.012366357
-0.12322831 0.02244854 -0.017620819
-0.12294545 0.023335531 -0.018530557
-0.12227387 0.023407713 -0.018219668
-0.12179723 0.023886731 -0.01851874
-0.1211252 0.023959128 -0.018207846
-0.12074707 0.024640856 -0.018811665
-0.12036955 0.025321506 -0.019414527
-0.11950079 0.024989124 -0.018495101
-0.11872894 0.024859035 -0.017878965
-0.11675822 0.022278475 -0.01357419
-0.11618045 0.022555832 -0.013568243
-0.115804 0.023242749 -0.014179363
-0.11522669 0.023519885 -0.014173422
-0.11464938 0.02379702 -0.014167479
-0.11397076 0.023869786 -0.01385312
-0.11257796 0.022507092 -0.011370939
-0.11199857 0.022785224 -0.011364975
-0.11141918 0.023063356 -0.011359012
-0.11022074 0.02210664 -0.0094854115
-0.10984711 0.022797493 -0.010102982
-0.10937047 0.023281738 -0.01040841
-0.10920521 0.024380783 -0.011645568
-0.10872978 0.024863429 -0.01194977
-0.10866942 0.02616146 -0.013490934
-0.10840248 0.02704861 -0.014410312
-0.10792908 0.027528465 -0.014712326
-0.10724831 0.02760266 -0.014398432
-0.10646272 0.027473981 -0.013775841
-0.10546621 0.026938315 -0.012533631
-0.1046773 0.026808798 -0.011908059
-0.10367555 0.026270786 -0.010659881
-0.12322512 0.020941721 -0.014723805
-0.12362202 0.023262188 -0.017782738
-0.12324192 0.023944467 -0.018386893
-0.12247334 0.023813602 -0.017770914
-0.12209415 0.024495447 -0.018375078
-0.12122674 0.024161819 -0.017453687
-0.12104429 0.025249034 -0.018667946
-0.12027428 0.025119254 -0.018052435
-0.11950305 0.024989272 -0.017435947
-0.11892848 0.025265086 -0.017430034
-0.11785747 0.024525223 -0.015893407
-0.11658181 0.023373606 -0.013734228
-0.1160045 0.023650741 -0.013728286
-0.11542719 0.023927877 -0.013722343
-0.11464779 0.023796218 -0.013098965
-0.11335856 0.02263842 -0.010924202
-0.11277918 0.022916552 -0.010918238
-0.10973804 0.022589775 -0.0087133162
-0.10946833 0.023486186 -0.0096435836
-0.10899185 0.023970153 -0.0099491961
-0.10872345 0.024863476 -0.010876494
-0.10835192 0.025550472 -0.011491473
-0.1082923 0.026847135 -0.01303355
-0.10802582 0.027733466 -0.013953474
-0.10744873 0.028010491 -0.013947534
-0.10666329 0.027882135 -0.013324584
-0.1057719 0.027550431 -0.012391271
-0.10487837 0.027217932 -0.011455721
-0.10429944 0.027495842 -0.011449763
-0.10329708 0.026958928 -0.01020085
-0.12253524 0.01797539 -0.0096332757
-0.12391156 0.022372825 -0.015809624
-0.12382148 0.023668077 -0.017333983
-0.12353814 0.024552921 -0.018243341
-0.1226728 0.024219494 -0.01732216
-0.12239083 0.025103683 -0.018231533
-0.12142629 0.02456787 -0.017004756
-0.12104777 0.025249388 -0.017609766
-0.12027716 0.025119506 -0.016992928
-0.11970259 0.025395323 -0.016987015
-0.11912803 0.025671141 -0.016981101
-0.1184544 0.025744302 -0.016669352
-0.1174817 0.025208445 -0.015437658
-0.11670611 0.025078168 -0.014817378
-0.11562768 0.024335869 -0.013271266
-0.11373208 0.021946259 -0.0092319688
-0.1087778 0.023558209 -0.0082473848
-0.10861323 0.024658572 -0.0094899815
-0.10824133 0.025346555 -0.010106806
-0.10818186 0.026645176 -0.011653492
-0.10801895 0.027735798 -0.012885216
-0.1074414 0.028013045 -0.01287927
-0.10686387 0.02829029 -0.012873326
-0.10618187 0.028364876 -0.012558326
-0.10539448 0.02823665 -0.011933521
-0.10450049 0.027904974 -0.010997423
-0.10392157 0.028182885 -0.010991464
-0.12331677 0.018106874 -0.0091860024
-0.12332502 0.019627623 -0.011046164
-0.12411142 0.022779524 -0.015359977
-0.12411772 0.024277125 -0.017190736
-0.12364052 0.024755608 -0.017490093
-0.12296949 0.024828322 -0.017178917
-0.12259006 0.025509093 -0.01778331
-0.121528 0.024770884 -0.016249822
-0.12124716 0.025655117 -0.017161191
-0.1204767 0.025525557 -0.016543996
-0.11990214 0.025801374 -0.016538082
-0.11932757 0.026077192 -0.016532168
-0.11875301 0.026353009 -0.016526254
-0.1178806 0.026021194 -0.015601566
-0.11710593 0.025891669 -0.014981909
-0.11592871 0.0249478 -0.013128893
-0.10813046 0.025142148 -0.0087188138
-0.10775881 0.025830019 -0.0093365023
-0.10801208 0.027738137 -0.011815254
-0.10753807 0.028218482 -0.012118782
-0.10685607 0.028293069 -0.011803354
-0.10617353 0.028367717 -0.011487676
-0.10559529 0.028645294 -0.011481724
-0.10491198 0.028720113 -0.01116579
-0.10412262 0.028592017 -0.010539126
-0.10343789 0.028666902 -0.010222437
-0.12448321 0.017544132 -0.0081203151
-0.12409832 0.01823836 -0.0087387301
-0.12381181 0.019138554 -0.0096674794
-0.123526 0.020036593 -0.010594006
-0.12402028 0.022573519 -0.013988177
-0.12412364 0.024276705 -0.016130546
-0.12374299 0.024958452 -0.01673625
-0.12307173 0.025031276 -0.01642465
-0.12259477 0.02550965 -0.01672443
-0.12172762 0.025177095 -0.015800711
-0.12125081 0.025655793 -0.016100977
-0.12067625 0.025931608 -0.016095065
-0.12010168 0.026207427 -0.016089149
-0.11952712 0.026483243 -0.016083235
-0.11895254 0.02675906 -0.016077323
-0.11808038 0.026427731 -0.0151521
-0.11730587 0.026298527 -0.014532085
-0.11562607 0.024335122 -0.011131103
-0.10717137 0.02610942 -0.0082534431
-0.10700956 0.027204383 -0.0094945394
-0.10663938 0.027889509 -0.010110621
-0.10606045 0.028167419 -0.010104663
-0.10600541 0.029458867 -0.011649503
-0.10542765 0.029736223 -0.011643558
-0.10463965 0.029609093 -0.011018024
-0.10374476 0.029279059 -0.010080828
-0.10295384 0.029151307 -0.0094527947
-0.12545994 0.018091379 -0.0082974276
-0.12517181 0.01899175 -0.0092267068
-0.12478713 0.019683436 -0.0098430021
-0.12401303 0.019548014 -0.0092147803
-0.12372697 0.020445561 -0.010141848
-0.12402615 0.022571743 -0.012921646
-0.12403266 0.024072809 -0.014761841
-0.12394238 0.025364183 -0.016287671
-0.12317406 0.025234392 -0.015669787
-0.12259949 0.025510211 -0.015663872
-0.12192725 0.02558331 -0.015351602
-0.12145036 0.026061844 -0.015652044
-0.12077766 0.026135162 -0.015339768
-0.12030122 0.026613478 -0.015640216
-0.11972667 0.026889296 -0.015634304
-0.11915209 0.027165111 -0.01562839
-0.11818088 0.026631724 -0.01439553
-0.11660597 0.024874775 -0.011305109
-0.11552432 0.024129994 -0.0097476635
-0.10663139 0.027891975 -0.0090358751
-0.1061568 0.028373411 -0.0093412427
-0.1056826 0.028854461 -0.0096463654
-0.10573297 0.03034649 -0.01150172
-0.10515543 0.030623738 -0.011495776
-0.10426223 0.030295312 -0.010560274
-0.10326102 0.029763516 -0.0093114376
-0.10257567 0.029838899 -0.0089941313
-0.12662843 0.019051973 -0.009097361
-0.12633935 0.019949757 -0.010024199
-0.12576088 0.020227445 -0.010018245
-0.12508534 0.020298934 -0.0097016022
-0.12450665 0.02057673 -0.0096956454
-0.12431765 0.021677462 -0.010930981
-0.12412926 0.022774689 -0.012162384
-0.12423243 0.024479344 -0.014312374
-0.12394816 0.025364626 -0.015226767
-0.1233736 0.025640443 -0.015220854
-0.12279903 0.025916262 -0.015214941
-0.12212687 0.025989521 -0.01490249
-0.12155207 0.026265448 -0.014896574
-0.12087915 0.026338877 -0.014583875
-0.12040249 0.026817301 -0.014884742
-0.11982769 0.027093228 -0.014878826
-0.11895622 0.026762165 -0.013951809
-0.11768413 0.02561724 -0.01178808
-0.11660594 0.024874831 -0.010233459
-0.10625322 0.028579567 -0.0085772127
-0.10577878 0.029060729 -0.0088827619
-0.10593355 0.030754646 -0.011050463
-0.10546076 0.031233408 -0.011354054
-0.10488344 0.031510543 -0.011348113
-0.10388482 0.030981533 -0.010102524
-0.102883 0.030450832 -0.0088529568
-0.10219751 0.030526491 -0.008535468
-0.12740871 0.019183248 -0.008650803
-0.12750317 0.020904711 -0.01081915
-0.12721385 0.021797784 -0.011741352
-0.126637 0.022074698 -0.011735414
-0.12606014 0.022351611 -0.011729477
-0.12528984 0.022218801 -0.011105008
-0.12480953 0.022700772 -0.011408458
-0.1243296 0.023182357 -0.011711665
-0.12443222 0.02488588 -0.013862907
-0.12414771 0.025770677 -0.014777835
-0.12405731 0.027057162 -0.016301822
-0.12338697 0.027130729 -0.015990423
-0.12242401 0.026598129 -0.014760094
-0.1217517 0.026671661 -0.014447464
-0.12088252 0.026340095 -0.013519933
-0.12030704 0.02661635 -0.01351401
-0.11973156 0.026892604 -0.013508087
-0.1190571 0.026966371 -0.013194464
-0.11758505 0.025414053 -0.010408181
-0.10645444 0.028989026 -0.0081245117
-0.10597992 0.029470025 -0.0084302425
-0.10613412 0.0311628 -0.010599205
-0.10566125 0.031641398 -0.010902977
-0.10508393 0.031918537 -0.010897035
-0.10408563 0.031390175 -0.0096507277
-0.10340171 0.031466089 -0.0093340632
-0.10261115 0.031340186 -0.0087059354
-0.10181934 0.031214083 -0.0080768038
-0.12828128 0.021035621 -0.010373837
-0.12799105 0.021928536 -0.011296571
-0.1274142 0.02220545 -0.011290633
-0.12712532 0.023095906 -0.012211173
-0.12654917 0.02337249 -0.012205242
-0.12558703 0.022831576 -0.010963499
-0.12500995 0.0231086 -0.010957559
-0.12452993 0.023590023 -0.011260946
-0.124632 0.025292415 -0.01341344
-0.12463706 0.026783455 -0.015248097
-0.12425645 0.02746241 -0.015853779
-0.1235862 0.027536139 -0.015542201
-0.12272092 0.027206255 -0.014617808
-0.12195132 0.027077872 -0.013998353
-0.12108237 0.026746793 -0.013070288
-0.12040846 0.026820499 -0.012756491
-0.11983275 0.027096864 -0.012750565
-0.1189599 0.026765278 -0.011819535
-0.10570684 0.030359769 -0.0082833907
-0.10544292 0.031243663 -0.0092108333
-0.10528443 0.032326527 -0.010445957
-0.10428645 0.031798817 -0.0091989301
-0.10360261 0.031874895 -0.0088820858
-0.10291822 0.031951033 -0.0085649891
-0.1285774 0.021649111 -0.010232563
-0.12819138 0.022336202 -0.010845852
-0.1277103 0.022817742 -0.011149162
-0.12713367 0.023094548 -0.011143228
-0.12655705 0.023371352 -0.011137293
-0.12588397 0.023443861 -0.010822101
-0.12530713 0.023720775 -0.010816165
-0.12482718 0.024201766 -0.011119488
-0.12492839 0.025901783 -0.013271521
-0.12483636 0.027189024 -0.014799697
-0.1244556 0.027867658 -0.015405734
-0.12388217 0.028142931 -0.015399831
-0.12311471 0.028015492 -0.014781977
-0.12234604 0.027887855 -0.014163142
-0.12138028 0.027355824 -0.012928448
-0.1206084 0.027227357 -0.012306667
-0.12003269 0.027503721 -0.012300741
-0.10496043 0.031728324 -0.0084420154
-0.10438196 0.03200601 -0.0084360614
-0.10380351 0.032283701 -0.0084301084
-0.1031192 0.032360002 -0.008112831
-0.12829986 0.021029606 -0.0082281958
-0.12820058 0.022334239 -0.0097755436
-0.12781486 0.023020785 -0.010389196
-0.12714203 0.023093186 -0.010073582
-0.12656493 0.02337021 -0.010067643
-0.12598786 0.023647236 -0.010061702
-0.12550746 0.024128444 -0.010365446
-0.12522087 0.025016608 -0.011287089
-0.12503156 0.026105486 -0.012514506
-0.12503567 0.027594594 -0.014351297
-0.12465475 0.028272908 -0.01495769
-0.12408132 0.028548179 -0.014951787
-0.12350789 0.02882345 -0.014945885
-0.12254551 0.028293746 -0.013714388
-0.12167796 0.027964372 -0.01278672
-0.12080834 0.027634215 -0.011856843
-0.1200354 0.027505867 -0.011233716
-0.12763202 0.022609625 -0.0086975815
-0.12647648 0.023164338 -0.0086856876
-0.12589872 0.023441693 -0.0086797411
-0.12570779 0.024536112 -0.009914727
-0.12532437 0.025220364 -0.01052778
-0.1248448 0.025700374 -0.010830976
-0.12475277 0.026990566 -0.012367024
-0.1246611 0.028275654 -0.013896991
-0.12428048 0.028953427 -0.014503743
-0.12370704 0.029228698 -0.014497841
-0.12293945 0.029102121 -0.013879271
-0.12217063 0.028975343 -0.013259722
-0.1212046 0.028445039 -0.012023593
-0.12023549 0.027913049 -0.010783535
-0.12552159 0.024127368 -0.0082223564
-0.12523453 0.025016945 -0.0091480268
-0.12504491 0.026107553 -0.010380795
-0.12475921 0.026992302 -0.011301323
-0.12447419 0.027874947 -0.01221966
-0.12438311 0.029157775 -0.013749314
-0.12390619 0.029633947 -0.014049796
-0.12333275 0.02990922 -0.014043894
-0.12246753 0.029582288 -0.013118087
-0.12169803 0.029455841 -0.01249769
-0.12053408 0.028522342 -0.010642434
-0.12428079 0.025978824 -0.008685248
-0.12409268 0.027067905 -0.009918754
-0.12409902 0.028557085 -0.011764633
-0.12410534 0.030039199 -0.013601751
-0.12353191 0.030314468 -0.013595849
-0.12295848 0.030589741 -0.013589947
-0.12199523 0.030062834 -0.0123563
-0.12093072 0.029332785 -0.010810215
-0.12372385 0.029239224 -0.011309607
-0.12373105 0.030719716 -0.013147804
-0.12325458 0.031195085 -0.013448406
-0.12248694 0.031070115 -0.012829252
-0.12142467 0.030342929 -0.011285941
-0.1205551 0.030015737 -0.010354646
-0.12334868 0.029921364 -0.01085458
-0.12345366 0.031600174 -0.013000539
-0.12288045 0.031875338 -0.012994639
-0.12191746 0.031350676 -0.011760538
-0.1209514 0.03082435 -0.010522522
-0.12315939 0.029522635 -0.0091697499
-0.12355592 0.031805485 -0.012245812
-0.12307952 0.032280426 -0.012546771
-0.12240907 0.032356031 -0.012234009
-0.12124913 0.031431284 -0.010381805
-0.12047775 0.031306151 -0.0097584957
-0.12335934 0.029929491 -0.0087199267
-0.12365828 0.032010965 -0.01149049
-0.12318165 0.032486007 -0.011791866
-0.12260821 0.032761279 -0.011785964
-0.12183975 0.032637496 -0.011165247
-0.12087396 0.032113422 -0.0099267783
-0.11990509 0.031587683 -0.0086843725
-0.12356689 0.031816583 -0.010118439
-0.12328384 0.032691751 -0.011036362
-0.12280737 0.033166528 -0.011337919
-0.12213653 0.033242512 -0.011024554
-0.12107358 0.032519635 -0.0094776666
-0.12049878 0.032795563 -0.0094717508
-0.11952933 0.032270905 -0.0082286233
-0.12357237 0.031822141 -0.0090522217
-0.12319201 0.032498181 -0.0096637728
-0.12290942 0.03337254 -0.010582237
-0.12233576 0.033647921 -0.010576332
-0.12156677 0.033524796 -0.0099544115
-0.12069841 0.033201776 -0.0090226401
-0.11992659 0.033078048 -0.0083982535
-0.12319721 0.032504279 -0.0085971942
-0.12281714 0.033179779 -0.0092091067
-0.12253499 0.034053329 -0.01012811
-0.12196133 0.034328714 -0.010122206
-0.12119205 0.034206122 -0.0094999252
-0.12032323 0.033883914 -0.0085676135
-0.12224724 0.033462346 -0.008136251
-0.12206309 0.034535266 -0.009365743
-0.12148921 0.034810755 -0.0093598356
-0.12081732 0.034887452 -0.0090454398
-0.12159082 0.035017587 -0.0086027719
-0.12101671 0.035293184 -0.0085968627
-0.098610133 0.016742822 -0.016818615
-0.099686198 0.015830973 -0.019110614
-0.10012475 0.016247695 -0.01910826
-0.098585732 0.015803477 -0.016748821
-0.099582173 0.015060172 -0.01875421
-0.10080936 0.013827147 -0.021601807
-0.10179365 0.013093735 -0.023581758
-0.10269536 0.012527165 -0.0252703
-0.10382371 0.011476165 -0.027790155
-0.11002436 0.033771016 -0.0082428185
-0.097678922 0.016695563 -0.013503459
-0.099478155 0.014289372 -0.018397806
-0.10070573 0.013059234 -0.021246739
-0.10145593 0.012818482 -0.022378936
-0.10251468 0.011925827 -0.024635533
-0.10318162 0.011850479 -0.025476828
-0.10415426 0.011126298 -0.027435662
-0.099812686 0.013935295 -0.018039046
-0.10096049 0.012870482 -0.02060502
-0.1017106 0.012629922 -0.021738604
-0.10245845 0.01239008 -0.022868797
-0.10304927 0.012477311 -0.023431458
-0.11253876 0.024589408 -0.019687373
-0.11327235 0.024331015 -0.020823607
-0.1123385 0.033621322 -0.0086836154
-0.11278239 0.034043126 -0.0086812312
-0.11345132 0.033940997 -0.0095580043
-0.10074354 0.013668111 -0.018250441
-0.10173096 0.012932917 -0.020245124
-0.10247991 0.012692262 -0.021379244
-0.10283861 0.013270923 -0.021093102
-0.11221176 0.024325976 -0.018475194
-0.11316872 0.0235631 -0.020468539
-0.11367937 0.023810165 -0.020750437
-0.11411612 0.024225172 -0.02074809
-0.1126771 0.033262931 -0.0083204852
-0.11372026 0.032292619 -0.010659166
-0.11438609 0.032192793 -0.01153103
-0.11490227 0.032439489 -0.011819628
-0.098770283 0.018142004 -0.0095014125
-0.1011226 0.014556334 -0.016456021
-0.10234538 0.013323811 -0.019315444
-0.10200069 0.015390722 -0.016451303
-0.11113422 0.025756564 -0.014383169
-0.11262025 0.023803761 -0.018402712
-0.11320631 0.023882851 -0.018971469
-0.11408609 0.023289707 -0.020677323
-0.11459602 0.02353669 -0.020958932
-0.11405784 0.031935316 -0.010297137
-0.11479747 0.031662844 -0.011460522
-0.11531331 0.031909648 -0.011749038
-0.11582875 0.032156266 -0.012037335
-0.099348933 0.017280355 -0.010015936
-0.10058813 0.016027747 -0.012922415
-0.10102899 0.016446674 -0.012920047
-0.11147001 0.025401149 -0.014023055
-0.11288006 0.023618618 -0.017758479
-0.11354008 0.023529571 -0.018613517
-0.11441911 0.022937221 -0.020320175
-0.11500208 0.023016723 -0.020885795
-0.11565702 0.022928715 -0.021733811
-0.11513453 0.031306084 -0.011099043
-0.11572402 0.03138021 -0.011678501
-0.11616556 0.031799775 -0.011676129
-0.1168271 0.031700734 -0.012544861
-0.11646084 0.034028895 -0.0093387319
-0.099163756 0.016670089 -0.009364049
-0.099686503 0.016923053 -0.0096539082
-0.10012905 0.017343573 -0.0096515305
-0.1005716 0.017764091 -0.0096491529
-0.1132883 0.023096668 -0.01768627
-0.11387386 0.02317629 -0.018255565
-0.11467882 0.022752309 -0.019678591
-0.11526182 0.022831982 -0.020244904
-0.11598942 0.022576887 -0.021377329
-0.11642519 0.022990962 -0.021374989
-0.11686095 0.02340504 -0.021372648
-0.11502972 0.030529439 -0.010739936
-0.11561929 0.030604156 -0.011319667
-0.11628146 0.030506473 -0.012188802
-0.11672249 0.030925561 -0.012186434
-0.11723663 0.031172177 -0.01247413
-0.11767749 0.031591106 -0.012471762
-0.11724156 0.034092162 -0.0089740483
-0.099581532 0.016145231 -0.0092942566
-0.10034311 0.015896698 -0.010459161
-0.10046662 0.01698627 -0.0092895022
-0.11347435 0.023079528 -0.016755274
-0.11428127 0.022655094 -0.018183248
-0.11508517 0.022232248 -0.019605877
-0.11588606 0.021810986 -0.02102319
-0.11632182 0.02222506 -0.021020848
-0.11690228 0.022304945 -0.021584891
-0.11733773 0.022718713 -0.021582549
-0.11777315 0.023132479 -0.021580212
-0.11806487 0.023881363 -0.021011487
-0.11756333 0.026487999 -0.017306877
-0.11749388 0.028094694 -0.015295978
-0.11793292 0.028511889 -0.01529362
-0.11764584 0.030644018 -0.012403452
-0.11808654 0.031062787 -0.012401085
-0.11852724 0.03148156 -0.012398717
-0.11993854 0.035489116 -0.0091849035
-0.12038109 0.035909638 -0.0091825258
-0.12053525 0.037031297 -0.0080091469
-0.10068017 0.015539937 -0.010097682
-0.1148351 0.021799348 -0.018681457
-0.11541819 0.021879762 -0.01924873
-0.11650845 0.020793037 -0.021799153
-0.116799 0.021539614 -0.021231014
-0.11723444 0.02195338 -0.021228677
-0.11766987 0.022367148 -0.021226335
-0.11810531 0.022780914 -0.021223998
-0.11839728 0.023529535 -0.020655004
-0.11876139 0.024111381 -0.020369019
-0.11847947 0.026211794 -0.017518505
-0.11826782 0.028157411 -0.014934454
-0.11870687 0.028574605 -0.014932095
-0.11842272 0.030706972 -0.012040562
-0.11886342 0.031125741 -0.012038195
-0.11930412 0.031544514 -0.012035826
-0.11983357 0.034711298 -0.0088252518
-0.1204204 0.03478295 -0.0094073145
-0.1208626 0.035203151 -0.0094049387
-0.12123304 0.035798039 -0.0091104526
-0.11516837 0.021446599 -0.018324042
-0.11618772 0.020526823 -0.020596128
-0.11684035 0.020441735 -0.021443203
-0.11727546 0.020855192 -0.021440867
-0.11756659 0.021601817 -0.020872461
-0.11793012 0.022182507 -0.02058677
-0.11829391 0.022763632 -0.020300865
-0.11872968 0.023177708 -0.020298524
-0.11909392 0.023759423 -0.020012403
-0.11952984 0.024173653 -0.020010063
-0.11932254 0.026105089 -0.017444117
-0.11961674 0.02685958 -0.016869722
-0.11948082 0.028637322 -0.014570571
-0.11934408 0.030425806 -0.012257527
-0.11978445 0.030844262 -0.01225516
-0.12022483 0.031262718 -0.012252796
-0.12037799 0.032371826 -0.011089832
-0.12053163 0.033484302 -0.0099233426
-0.12097333 0.033904023 -0.0099209696
-0.12134339 0.034497738 -0.0096270144
-0.12157048 0.035440873 -0.0087485611
-0.11306744 0.0252317 -0.010187452
-0.1150623 0.022098586 -0.016251031
-0.11637496 0.020507848 -0.019672181
-0.11724437 0.019924475 -0.021370102
-0.11760737 0.02050389 -0.021084918
-0.11789874 0.021250252 -0.020516245
-0.11833418 0.021664016 -0.020513907
-0.11876962 0.022077784 -0.020511568
-0.1191336 0.022658654 -0.020225743
-0.11949785 0.023239955 -0.019939702
-0.11986236 0.023821693 -0.019653449
-0.12015598 0.024571933 -0.019082641
-0.12009359 0.02616757 -0.017083948
-0.1204597 0.026752589 -0.01679555
-0.12025477 0.028700039 -0.014209047
-0.12040752 0.029801939 -0.013052543
-0.12084723 0.030219762 -0.013050181
-0.12135826 0.030465901 -0.013336684
-0.1218689 0.030711854 -0.013622969
-0.12202421 0.031817622 -0.012464709
-0.12175198 0.033967122 -0.0095572546
-0.12183636 0.035258248 -0.008094063
-0.09879946 0.012447471 -0.0081507266
-0.11510281 0.022416851 -0.01474424
-0.11670749 0.02015589 -0.019315567
-0.11750416 0.019739131 -0.020731306
-0.1180111 0.019986607 -0.02101195
-0.11844605 0.020399909 -0.021009613
-0.11873794 0.021145916 -0.0204411
-0.11917322 0.021559527 -0.020438761
-0.1196085 0.021973139 -0.020436423
-0.12011484 0.022219876 -0.020717282
-0.12047904 0.022800364 -0.020431746
-0.12063082 0.023883965 -0.019294493
-0.120925 0.024634253 -0.018723417
-0.12079347 0.026399309 -0.016437598
-0.12101773 0.027324101 -0.015575401
-0.12052803 0.029961411 -0.011824531
-0.12103976 0.030207926 -0.01211182
-0.12176469 0.029939599 -0.013265894
-0.12241668 0.029843146 -0.014128579
-0.12264344 0.030774616 -0.013261173
-0.12208892 0.033610497 -0.0091959126
-0.12238811 0.034378111 -0.0086096032
-0.099015467 0.011008563 -0.0089603253
-0.099457167 0.011428285 -0.0089579523
-0.11418217 0.024938395 -0.0094629424
-0.11711231 0.019637771 -0.019243127
-0.11805151 0.018891111 -0.021224067
-0.11834289 0.019635435 -0.020656133
-0.11877783 0.020048739 -0.020653797
-0.11906998 0.020794481 -0.020085016
-0.11950525 0.021208094 -0.020082679
-0.12001164 0.021455115 -0.02036367
-0.12051763 0.021701952 -0.020644451
-0.12095258 0.022115255 -0.020642115
-0.12124635 0.022862541 -0.020073326
-0.12161111 0.023443485 -0.019787444
-0.12169403 0.02469657 -0.018364193
-0.12156481 0.026461815 -0.016077293
-0.12086383 0.029605998 -0.011464416
-0.12130402 0.030024294 -0.011462051
-0.12181546 0.030270785 -0.011749477
-0.12275145 0.029488802 -0.013769548
-0.12319033 0.029905839 -0.013767191
-0.12285233 0.0322151 -0.010581898
-0.12279645 0.033847339 -0.0085402019
-0.094215788 0.0052894084 -0.0092109377
-0.094657168 0.0057088132 -0.0092085665
-0.097197711 0.0019283768 -0.016711885
-0.098112427 0.0013851676 -0.018420894
-0.099023052 0.00084439106 -0.020122252
-0.11816797 0.019036524 -0.020019406
-0.11860309 0.019449981 -0.020017071
-0.11896674 0.020029437 -0.019731274
-0.11933065 0.020609323 -0.019445263
-0.11955217 0.021523125 -0.018590631
-0.1199881 0.021937355 -0.01858829
-0.12077865 0.021517269 -0.020005384
-0.12128437 0.021764085 -0.020286299
-0.12157838 0.022511108 -0.019717243
-0.12194327 0.023091922 -0.019431228
-0.12237871 0.023505688 -0.019428888
-0.12302417 0.023417298 -0.020276953
-0.12266205 0.030161943 -0.011676843
-0.12345471 0.029722577 -0.013119758
-0.12389375 0.03013977 -0.013117399
-0.12320449 0.033316966 -0.0084708538
-0.094356537 0.0040266677 -0.0097262133
-0.09479741 0.0044455966 -0.0097238459
-0.097094037 0.0011601767 -0.016356682
-0.097770318 0.0010965554 -0.017211374
-0.098840855 0.00023824205 -0.019485086
-0.099354953 0.00049308862 -0.019766303
-0.11734671 0.021349046 -0.01510045
-0.11785675 0.021597404 -0.015384894
-0.11865425 0.021176383 -0.016813295
-0.11916266 0.021424247 -0.017096458
-0.11967068 0.021671928 -0.017379411
-0.12010709 0.022086624 -0.017377064
-0.12068559 0.022166733 -0.017944675
-0.12119248 0.022413857 -0.018226992
-0.12169898 0.022660797 -0.018509096
-0.12213475 0.023074873 -0.018506756
-0.12278096 0.022986898 -0.019356485
-0.12335595 0.023066126 -0.019921137
-0.12386051 0.023312269 -0.020201979
-0.12357848 0.029881719 -0.011893674
-0.12422866 0.029785294 -0.012758234
-0.1246677 0.030202487 -0.012755875
-0.094251968 0.0032517868 -0.0093679214
-0.094692841 0.003670716 -0.009365554
-0.096509114 0.001350425 -0.014280811
-0.097427435 0.00080729404 -0.015999133
-0.098341644 0.00026660063 -0.017709741
-0.099093981 4.540669e-05 -0.018845107
-0.099371731 0.0007770345 -0.018274337
-0.11855606 0.021827517 -0.01473766
-0.11935256 0.021405905 -0.01616781
-0.11986089 0.021653777 -0.016451322
-0.12043999 0.021734269 -0.01702005
-0.12087641 0.022148965 -0.017017705
-0.121525 0.022061897 -0.017870376
-0.12196093 0.022476127 -0.017868035
-0.12239686 0.022890357 -0.017865693
-0.1227626 0.023472182 -0.017578557
-0.12354826 0.023049075 -0.018998066
-0.12412268 0.023128258 -0.019562984
-0.12455763 0.02354156 -0.019560648
-0.12327863 0.031073486 -0.0089203175
-0.12449353 0.029601917 -0.012110177
-0.12500261 0.029848011 -0.012396709
-0.12537196 0.03043662 -0.012105458
-0.094588272 0.0028958351 -0.009007263
-0.095029138 0.0033147645 -0.0090048946
-0.097243838 0.00019840346 -0.015357557
-0.098079324 -0.00018225618 -0.01678494
-0.09867429 -8.5490159e-05 -0.017352995
-0.099268369 1.1131199e-05 -0.017920198
-0.1207729 0.021381915 -0.016663034
-0.12106752 0.022131173 -0.016089348
-0.12164573 0.022211306 -0.016658347
-0.12208214 0.022626001 -0.016656002
-0.12258888 0.022873141 -0.016939012
-0.12309525 0.023120092 -0.01722181
-0.12367108 0.023199368 -0.017789112
-0.12431557 0.023111254 -0.018639646
-0.12488941 0.02319039 -0.019204833
-0.12532437 0.023603693 -0.019202495
-0.12461853 0.029760985 -0.010882488
-0.12526777 0.029664658 -0.011748517
-0.12570699 0.030082008 -0.011746158
-0.12600721 0.030842626 -0.011165086
-0.094483696 0.0021209545 -0.0086489711
-0.094924569 0.0025398836 -0.0086466037
-0.097140126 -0.00057008467 -0.015002221
-0.097657174 -0.0003137888 -0.01528638
-0.098491572 -0.00069334783 -0.016713364
-0.098927818 -0.00027880739 -0.016711021
-0.1207715 0.024719184 -0.011415169
-0.12227415 0.022608567 -0.015727373
-0.12285146 0.022688342 -0.016296642
-0.12335791 0.022935458 -0.016579786
-0.12386399 0.023182387 -0.016862718
-0.1245782 0.022926962 -0.017999351
-0.12515207 0.023006264 -0.018565228
-0.12565616 0.023252521 -0.018846679
-0.12609109 0.023665825 -0.018844344
-0.12451423 0.028988147 -0.010525143
-0.12495394 0.029405972 -0.010522781
-0.12560281 0.029310048 -0.011389215
-0.12604201 0.029727397 -0.011386856
-0.12641189 0.030316185 -0.011095115
-0.12671275 0.031077264 -0.010513334
-0.094379127 0.0013460736 -0.0082906801
-0.09482 0.0017650028 -0.0082883118
-0.09582901 0.001056795 -0.010321328
-0.097553499 -0.0010819889 -0.014931178
-0.098149754 -0.00098440389 -0.015501471
-0.098745123 -0.0008869649 -0.016070912
-0.098944008 4.7263402e-06 -0.015210564
-0.12154575 0.024781926 -0.011053509
-0.12304404 0.022670954 -0.015367744
-0.12362077 0.022750685 -0.015937284
-0.12412695 0.022997776 -0.016220562
-0.12491035 0.022575395 -0.017643137
-0.12541491 0.022821998 -0.017925145
-0.12598793 0.022901351 -0.018490864
-0.12642288 0.023314653 -0.018488528
-0.12651469 0.024566092 -0.017064445
-0.12542893 0.028708914 -0.010742758
-0.12593785 0.028955437 -0.011029915
-0.12637705 0.029372787 -0.011027556
-0.12681626 0.029790139 -0.011025196
-0.12711732 0.030550536 -0.010443581
-0.12748788 0.031140076 -0.010151263
-0.095724717 0.00028395973 -0.0099639837
-0.097449832 -0.0018501889 -0.014575976
-0.098046169 -0.0017520285 -0.015146536
-0.098482907 -0.0013370222 -0.01514419
-0.098919645 -0.00092201598 -0.015141844
-0.098960236 0.00028911128 -0.013705604
-0.099000975 0.0015047921 -0.012263964
-0.12159617 0.025105203 -0.0095343255
-0.12260307 0.02416819 -0.011848244
-0.12381394 0.022733342 -0.015008117
-0.12445971 0.022645554 -0.015863681
-0.12503475 0.022725213 -0.016432211
-0.12567794 0.022637598 -0.017284583
-0.12631971 0.022550179 -0.018135048
-0.12675466 0.022963481 -0.018132711
-0.12718961 0.023376785 -0.018130375
-0.12721437 0.024796365 -0.016420504
-0.12627287 0.028600827 -0.010670614
-0.12671208 0.029018177 -0.010668254
-0.1271513 0.029435528 -0.010665895
-0.12759051 0.029852878 -0.010663536
-0.12775439 0.030956933 -0.0095012458
-0.12805662 0.031719361 -0.0089176008
-0.095620424 -0.00048887555 -0.009606638
-0.097186252 -0.0023016443 -0.013646743
-0.098022155 -0.0026777659 -0.015077865
-0.098538093 -0.0024210648 -0.015361571
-0.098816052 -0.0016896406 -0.014786907
-0.09917365 -0.0011159364 -0.014498079
-0.098896995 0.00073428144 -0.011907693
-0.09933538 0.001150848 -0.011905339
-0.099217743 0.0026924999 -0.0098779108
-0.099418588 0.0035946378 -0.0090043833
-0.10025533 0.0032051438 -0.010452874
-0.10021932 0.0045929658 -0.0087088263
-0.12178934 0.025089499 -0.0085929567
-0.12279642 0.024151828 -0.010911451
-0.12337615 0.024230834 -0.011487127
-0.12472299 0.022460671 -0.01522091
-0.12529804 0.0225405 -0.015790133
-0.12594119 0.022453059 -0.016643543
-0.12651424 0.022532744 -0.017210642
-0.12708645 0.022612311 -0.017776895
-0.1275214 0.023025613 -0.01777456
-0.12754689 0.024444407 -0.016063888
-0.12770949 0.025532093 -0.014918391
-0.12718521 0.028322199 -0.010887874
-0.12748633 0.029080918 -0.010306595
-0.12792553 0.029498268 -0.010304236
-0.1281587 0.030430052 -0.0094318483
-0.12839241 0.031363945 -0.0085574863
-0.095272653 -0.00078200758 -0.0083770873
-0.096278951 -0.0014824353 -0.010406808
-0.0979186 -0.0034451031 -0.014723062
-0.09867242 -0.0036609943 -0.015864167
-0.099108346 -0.003246764 -0.015861826
-0.09946537 -0.0026747151 -0.015573941
-0.09950693 -0.0014686869 -0.014140663
-0.0992314 0.0003803373 -0.011549068
-0.099669784 0.00079690391 -0.011546713
-0.099949859 0.0015340524 -0.010966584
-0.10030948 0.0021115614 -0.010675014
-0.10059036 0.0028505332 -0.010093573
-0.10102957 0.0032678843 -0.010091214
-0.12256533 0.025152382 -0.0082304776
-0.12371068 0.023876758 -0.011128367
-0.12491698 0.022443112 -0.014291206
-0.12563068 0.02218841 -0.015433386
-0.12613572 0.022435525 -0.015716642
-0.12684627 0.02218131 -0.01685456
-0.12741823 0.022261139 -0.01742108
-0.12785318 0.022674443 -0.017418744
-0.12794767 0.023924684 -0.015992662
-0.12817903 0.02484289 -0.015133515
-0.12806928 0.026608573 -0.012836917
-0.12802754 0.028214378 -0.010815756
-0.12826057 0.029143658 -0.0099449335
-0.12842546 0.030246643 -0.0087815588
-0.1287282 0.031008534 -0.0081973718
-0.095689535 -0.0012973093 -0.0083080633
-0.096613862 -0.0018369125 -0.010047643
-0.098251626 -0.0037975896 -0.014365912
-0.099004947 -0.004012954 -0.015507554
-0.099519745 -0.0037561371 -0.015790677
-0.099955507 -0.0033420615 -0.015788335
-0.099682219 -0.0015042135 -0.013209103
-0.099645071 -0.00013327086 -0.011479137
-0.10000419 0.00044295978 -0.011188087
-0.10036357 0.0010196238 -0.010896819
-0.10080212 0.0014363471 -0.010894463
-0.10116194 0.0020136021 -0.010602976
-0.10096999 0.0037203555 -0.008279697
-0.12355305 0.024706148 -0.0087407781
-0.12518072 0.022257946 -0.013647123
-0.12596333 0.021836318 -0.015076638
-0.12646824 0.022083567 -0.015360028
-0.12717831 0.021829875 -0.01649848
-0.12775001 0.021909967 -0.017065264
-0.12818497 0.022323271 -0.017062927
-0.12828007 0.023572857 -0.015636181
-0.12871584 0.023986932 -0.01563384
-0.12894806 0.024905208 -0.01477429
-0.12870418 0.027010182 -0.011900625
-0.12886925 0.028106637 -0.010743693
-0.12882952 0.029720027 -0.0087124342
-0.09626773 -0.0021311271 -0.0088204453
-0.097909294 -0.0040923548 -0.013150471
-0.098584659 -0.0041500758 -0.014008764
-0.099337474 -0.0043649124 -0.01515094
-0.099852145 -0.0041079652 -0.015434194
-0.10028791 -0.0036938891 -0.015431854
-0.10001574 -0.0018572287 -0.012851419
-0.099979356 -0.00048708194 -0.011120645
-0.10033859 8.9015673e-05 -0.010829462
-0.10077698 0.00050558225 -0.010827107
-0.10121536 0.00092214887 -0.010824752
-0.1015752 0.0014989933 -0.010533348
-0.12467852 0.023922872 -0.0098296441
-0.12615812 0.021818304 -0.014147522
-0.12680078 0.021731608 -0.015003413
-0.127442 0.021645105 -0.015857385
-0.1280818 0.021558795 -0.016709449
-0.12851673 0.021972099 -0.016707111
-0.12861247 0.023221029 -0.0152797
-0.12904823 0.023635104 -0.015277359
-0.129484 0.024049181 -0.015275018
-0.1291744 0.026317801 -0.012118661
-0.1294761 0.027072733 -0.011540052
-0.12964232 0.028169284 -0.010382577
-0.12953641 0.029954333 -0.00805951
-0.096844628 -0.0029630607 -0.0093316697
-0.098242693 -0.0044452371 -0.012792922
-0.098996863 -0.0046598734 -0.0139382
-0.09967 -0.0047168718 -0.014794325
-0.10018454 -0.0044597927 -0.015077714
-0.10054184 -0.003888411 -0.014789643
-0.10034926 -0.0022102436 -0.012493734
-0.1007865 -0.0017947705 -0.012491386
-0.100673 -0.00026492847 -0.010470836
-0.10111137 0.00015163816 -0.010468482
-0.10154976 0.00056820473 -0.010466127
-0.10190973 0.0011449159 -0.010174587
-0.10179884 0.0026871336 -0.0081418268
-0.12494346 0.023737358 -0.0091807293
-0.12545218 0.023985565 -0.0094682556
-0.12692742 0.021880645 -0.013788163
-0.12750082 0.021960907 -0.014358458
-0.12827763 0.021540621 -0.015783977
-0.12864503 0.022121074 -0.015496492
-0.12894487 0.022869201 -0.014923219
-0.12938064 0.023283277 -0.014920878
-0.12981641 0.023697354 -0.014918537
-0.12991475 0.024951851 -0.013485107
-0.12981012 0.026719186 -0.01118183
-0.1301803 0.027305072 -0.010890888
-0.13014409 0.028914528 -0.0088623129
-0.096938305 -0.0028408833 -0.0081013022
-0.098576099 -0.0047981199 -0.012435372
-0.099408768 -0.0051692901 -0.013867689
-0.10000253 -0.0050688311 -0.014437712
-0.10043845 -0.0046546008 -0.01443537
-0.10087437 -0.0042403704 -0.014433028
-0.10084002 -0.0028796887 -0.012711
-0.10127693 -0.0024645268 -0.012708653
-0.10124341 -0.001096778 -0.010978858
-0.1016813 -0.00068068062 -0.010976505
-0.1020409 -0.00010508861 -0.010685487
-0.10232255 0.00063082727 -0.010105146
-0.10221279 0.0021711069 -0.0080729686
-0.12578696 0.023631223 -0.0091092261
-0.12622584 0.024048258 -0.0091068689
-0.12769674 0.021942986 -0.013428804
-0.12854175 0.021355741 -0.015142617
-0.12884152 0.022103298 -0.01456908
-0.12927729 0.022517374 -0.014566738
-0.12971304 0.022931449 -0.014564397
-0.1301488 0.023345526 -0.014562056
-0.13031523 0.02443116 -0.013414738
-0.13007639 0.02653514 -0.010534885
-0.13051444 0.026951395 -0.010532532
-0.13061462 0.028218629 -0.0090832934
-0.097514443 -0.0036720154 -0.0086133387
-0.098988771 -0.0053082481 -0.012365318
-0.099741548 -0.0055215126 -0.013510808
-0.10033505 -0.0054207901 -0.014081097
-0.10077098 -0.0050065597 -0.014078755
-0.1012069 -0.0045923297 -0.014076415
-0.10164283 -0.0041780989 -0.014074072
-0.10176662 -0.0031332802 -0.012925593
-0.1022032 -0.0027184293 -0.012923248
-0.10263978 -0.0023035787 -0.012920903
-0.10268733 -0.001095497 -0.011481036
-0.10304692 -0.00052070868 -0.011190534
-0.12656061 0.023693914 -0.0087478384
-0.12761897 0.022595355 -0.011347109
-0.12846605 0.022005327 -0.013069444
-0.12917392 0.021751471 -0.014212598
-0.12960967 0.022165546 -0.014210258
-0.13004544 0.022579622 -0.014207916
-0.1304812 0.022993699 -0.014205576
-0.13064814 0.024078805 -0.013057723
-0.13041055 0.026181463 -0.010176529
-0.13071354 0.026937146 -0.0095958067
-0.13094941 0.027864285 -0.008724262
-0.13132085 0.028451925 -0.0084317382
-0.097849339 -0.0040264926 -0.0082541732
-0.099401139 -0.005817994 -0.012295317
-0.10007433 -0.0058737351 -0.013153926
-0.10066758 -0.0057727494 -0.013724484
-0.10110351 -0.005358519 -0.013722141
-0.10153943 -0.0049442882 -0.0137198
-0.10197536 -0.0045300578 -0.013717458
-0.10217764 -0.0036434587 -0.012855435
-0.10253622 -0.0030709156 -0.0125661
-0.1029728 -0.0026560647 -0.012563755
-0.10333182 -0.0020829374 -0.012274202
-0.10345837 -0.0010330154 -0.011120869
-0.12788412 0.02240997 -0.010700953
-0.12852654 0.022322381 -0.011562967
-0.12943865 0.021566462 -0.013569931
-0.12994209 0.021813719 -0.013853776
-0.13037786 0.022227794 -0.013851436
-0.13074644 0.022809153 -0.013562906
-0.13098103 0.023726452 -0.012700709
-0.13060954 0.026166635 -0.0092395367
-0.13084531 0.027092904 -0.0083675887
-0.13128418 0.027509941 -0.0083652316
-0.13165575 0.028097449 -0.0080725718
-0.098901287 -0.0058009033 -0.010500484
-0.099734291 -0.0061706123 -0.011938035
-0.10024978 -0.0059125074 -0.012223022
-0.10100011 -0.0061247088 -0.013367868
-0.10104452 -0.0049255933 -0.011930997
-0.10171585 -0.004982336 -0.012790015
-0.10230789 -0.0048820172 -0.013360844
-0.10274381 -0.0044677868 -0.013358503
-0.10325721 -0.0042108004 -0.013642427
-0.10338338 -0.0031664218 -0.012493731
-0.10381979 -0.0027517264 -0.012491387
-0.10417899 -0.0021788494 -0.012201915
-0.10415202 -0.00081148365 -0.010472279
-0.12814948 0.022224445 -0.010054315
-0.12885994 0.021969497 -0.011205417
-0.12956826 0.021715315 -0.012353071
-0.13027449 0.021461891 -0.013497296
-0.13071024 0.021875966 -0.013494954
-0.13114601 0.022290042 -0.013492614
-0.13131393 0.023374096 -0.012343694
-0.13094394 0.025812691 -0.0088809105
-0.13131498 0.026398897 -0.0085887751
-0.13161898 0.027155595 -0.0080062021
-0.13219206 0.027232343 -0.0085840635
-0.099235065 -0.0061541833 -0.010142531
-0.099909693 -0.006209651 -0.011005172
-0.10058281 -0.0062649935 -0.011865875
-0.10109778 -0.00600695 -0.012150782
-0.10137767 -0.005278212 -0.011573714
-0.10189254 -0.005020441 -0.011858839
-0.10248488 -0.0049200184 -0.012430791
-0.10315385 -0.0049767038 -0.013288287
-0.10358962 -0.004562628 -0.013285946
-0.10394819 -0.0039912849 -0.012997204
-0.10422989 -0.0032618565 -0.012421417
-0.1045891 -0.0026893849 -0.012132027
-0.1049486 -0.0021164848 -0.011842422
-0.12898925 0.022119194 -0.0099826986
-0.1296304 0.022031933 -0.010845518
-0.13060689 0.021110063 -0.013140813
-0.13104264 0.021524139 -0.013138474
-0.13147843 0.021938214 -0.013136133
-0.13164684 0.023021743 -0.011986679
-0.1316817 0.024445316 -0.010257206
-0.13171674 0.025875313 -0.0085199308
-0.13215512 0.026291879 -0.0085175755
-0.13259351 0.026708446 -0.0085152211
-0.13296515 0.02729499 -0.0082229469
-0.099331118 -0.0060360157 -0.0089172386
-0.10024308 -0.0065625333 -0.010647622
-0.10091583 -0.00661748 -0.011508727
-0.10143068 -0.0063593043 -0.011793768
-0.10178898 -0.0057877782 -0.011504036
-0.10238141 -0.0056867814 -0.012076253
-0.10281765 -0.0052722408 -0.01207391
-0.10348625 -0.0053285314 -0.012931806
-0.10392202 -0.0049144556 -0.012929465
-0.10435778 -0.0045003803 -0.012927124
-0.10456267 -0.003614079 -0.012064536
-0.10499892 -0.0031995387 -0.012062193
-0.10543516 -0.0027849982 -0.012059849
-0.10579484 -0.0022123482 -0.011770325
-0.12925501 0.021933561 -0.0093357889
-0.1299638 0.021679051 -0.010487968
-0.1309393 0.020758236 -0.012784333
-0.13137506 0.021172311 -0.012781993
-0.13161027 0.022087429 -0.011919242
-0.13197973 0.022669388 -0.011629664
-0.13241616 0.023084084 -0.01162732
-0.13265288 0.024002722 -0.010761978
-0.13308978 0.024417883 -0.010759631
-0.13352668 0.024833044 -0.010757284
-0.13343287 0.026601356 -0.0084440755
-0.10049778 -0.0067587146 -0.01000169
-0.10101356 -0.0065000989 -0.010287724
-0.10168543 -0.0065551153 -0.011149233
-0.10212202 -0.0061402647 -0.011146887
-0.10271418 -0.0060390038 -0.011719372
-0.10338289 -0.0060944348 -0.012577665
-0.10381866 -0.005680359 -0.012575325
-0.10463908 -0.0060487757 -0.014003106
-0.10507402 -0.0056354725 -0.01400077
-0.10527933 -0.0047520981 -0.013140995
-0.10548509 -0.0038667424 -0.012279293
-0.10592102 -0.0034525117 -0.012276951
-0.10635694 -0.0030382813 -0.012274609
-0.10656415 -0.0021500071 -0.011410966
-0.1295889 0.021580148 -0.0089777019
-0.13036473 0.021159001 -0.010418644
-0.13100339 0.021072946 -0.011279684
-0.13150679 0.021320665 -0.011564704
-0.13187622 0.021902338 -0.011274995
-0.13231264 0.022317033 -0.01127265
-0.13274905 0.022731729 -0.011270306
-0.13338432 0.022644009 -0.012129423
-0.13362187 0.023561122 -0.011265618
-0.13405828 0.023975817 -0.011263273
-0.13429688 0.024895456 -0.010397522
-0.10067395 -0.0067982385 -0.0090663228
-0.10126853 -0.0066962563 -0.0096416567
-0.10154907 -0.0059666685 -0.0090616224
-0.10198663 -0.0055508832 -0.0090592718
-0.10289162 -0.0060779001 -0.010787394
-0.1037153 -0.0064462624 -0.012221185
-0.10453591 -0.0068132505 -0.013649627
-0.10542981 -0.0073343092 -0.015357206
-0.1057876 -0.0067663384 -0.015070418
-0.10591707 -0.0057296664 -0.013928136
-0.10612324 -0.004846727 -0.013068601
-0.10640614 -0.0041190279 -0.012493728
-0.10676564 -0.0035477325 -0.012204799
-0.10727734 -0.0032911862 -0.012489048
-0.10733347 -0.0020876657 -0.011051607
-0.12941709 0.020978143 -0.0083325254
-0.13019355 0.020557966 -0.0097752158
-0.13076533 0.020639341 -0.010349371
-0.1311349 0.02122141 -0.010058882
-0.13150474 0.021803919 -0.0097681731
-0.13160655 0.023058631 -0.0083207637
-0.13264553 0.02196468 -0.010915635
-0.13334715 0.021710882 -0.012062008
-0.13378291 0.022124957 -0.012059667
-0.13435033 0.022204919 -0.012630401
-0.13478577 0.022618685 -0.012628063
-0.1348276 0.024038156 -0.010903914
-0.13486965 0.025464021 -0.0091720037
-0.10057016 -0.0075673033 -0.0087107215
-0.10100772 -0.0071515185 -0.0087083708
-0.10144528 -0.0067357337 -0.0087060202
-0.10180453 -0.0061628465 -0.0084143672
-0.10216405 -0.0055895294 -0.0081224954
-0.10267998 -0.0053309645 -0.008409665
-0.1040477 -0.0067980899 -0.011864703
-0.10540321 -0.0082521141 -0.01528889
-0.10591313 -0.0079949629 -0.015570723
-0.10634679 -0.0075828894 -0.015568394
-0.10662881 -0.0068599358 -0.014997521
-0.10668351 -0.005667557 -0.013570117
-0.10689054 -0.0047845487 -0.012710181
-0.10724995 -0.0042139287 -0.012421549
-0.10783675 -0.0041143703 -0.012991587
-0.10812082 -0.003386396 -0.012416871
-0.10764726 -0.0010737552 -0.0089622103
-0.10808466 -0.00065812626 -0.0089598605
-0.130225 0.019456709 -0.0099967821
-0.13066174 0.019871715 -0.0099944361
-0.13123277 0.019953543 -0.010567998
-0.13146819 0.020868663 -0.0097014653
-0.13156989 0.022121144 -0.008254475
-0.13251215 0.022785001 -0.0085391356
-0.13367955 0.021359054 -0.011705527
-0.13424705 0.021439586 -0.012276526
-0.13533658 0.020191541 -0.015128094
-0.13577038 0.020603769 -0.015125764
-0.13555336 0.022680888 -0.012269508
-0.13553146 0.024268579 -0.010256699
-0.10106112 -0.0082332324 -0.0089309867
-0.10149835 -0.0078177592 -0.008928638
-0.10193559 -0.0074022864 -0.0089262882
-0.10213844 -0.0065162592 -0.0080562811
-0.10309175 -0.0058416585 -0.0083410172
-0.1043801 -0.0071499175 -0.011508223
-0.10596241 -0.009066402 -0.015786253
-0.10639574 -0.0086546354 -0.015783925
-0.10682907 -0.0082428679 -0.015781596
-0.10711125 -0.0075209425 -0.015211307
-0.10739383 -0.0067979428 -0.014640169
-0.10767683 -0.0060738656 -0.014068179
-0.10773353 -0.0048791305 -0.012637976
-0.10816865 -0.0044656731 -0.012635638
-0.10845298 -0.0037379607 -0.012060655
-0.10843568 -0.0023776789 -0.010335233
-0.10841832 -0.0010112736 -0.0086020436
-0.1088557 -0.00059564464 -0.008599693
-0.1092931 -0.00018001568 -0.0085973432
-0.13012141 0.018689085 -0.0096418457
-0.13069284 0.018771797 -0.010215672
-0.13153115 0.018191658 -0.011936685
-0.13163261 0.019434918 -0.010498748
-0.13200209 0.020015884 -0.010208639
-0.13197079 0.02160015 -0.0081858849
-0.13284592 0.02243172 -0.0081811827
-0.13401197 0.021007227 -0.011349046
-0.13523367 0.019429058 -0.014775535
-0.1356675 0.019841285 -0.014773205
-0.13610132 0.020253513 -0.014770874
-0.13647038 0.02083154 -0.014483975
-0.13586447 0.023916092 -0.009899551
-0.10147303 -0.0087422645 -0.0088622198
-0.10191008 -0.0083269468 -0.0088598719
-0.10234716 -0.00791163 -0.008857524
-0.10286205 -0.007652679 -0.0091438796
-0.1032213 -0.0070809945 -0.0088528292
-0.10396802 -0.0072916853 -0.010004006
-0.10471251 -0.0075017451 -0.011151742
-0.10636881 -0.0095705865 -0.015715552
-0.10680199 -0.0091589717 -0.015713226
-0.10723516 -0.0087473569 -0.015710898
-0.10759296 -0.0081809666 -0.015424776
-0.10772487 -0.0071483296 -0.014285148
-0.10800812 -0.0064245136 -0.013712893
-0.1082164 -0.0055433395 -0.012854079
-0.10850056 -0.004816975 -0.012279688
-0.10870977 -0.0039323536 -0.011417665
-0.10876858 -0.0027300334 -0.009978218
-0.109205 -0.0023153378 -0.0099758739
-0.10964141 -0.0019006422 -0.0099735297
-0.1099277 -0.0011688279 -0.0093948301
-0.1101393 -0.00027678497 -0.008526328
-0.13001782 0.017921461 -0.0092869103
-0.13079111 0.017508097 -0.010724042
-0.13122703 0.017922327 -0.010721699
-0.13199662 0.017509732 -0.012153473
-0.13216554 0.018585023 -0.01100427
-0.13260132 0.018999098 -0.011001929
-0.13250494 0.020745272 -0.0086955233
-0.13337909 0.021575905 -0.0086908275
-0.13434435 0.020655399 -0.010992565
-0.13549949 0.019244013 -0.014135947
-0.13599841 0.01949103 -0.014418315
-0.13636744 0.020068774 -0.014131284
-0.1364776 0.021311359 -0.012702266
-0.13613221 0.023731548 -0.0092540644
-0.10180642 -0.0090951473 -0.0085046701
-0.10232152 -0.0088357525 -0.008791158
-0.10291398 -0.008732398 -0.0093658362
-0.1034281 -0.0084734308 -0.0096516795
-0.1038645 -0.0080587352 -0.0096493354
-0.10453217 -0.0081119211 -0.010510271
-0.10504491 -0.0078535732 -0.010795261
-0.10669924 -0.0099203223 -0.015361191
-0.10713241 -0.0095087076 -0.015358863
